-17.608041243006	-16.73267314477877	-15.3697035397131	-14.03435548086719	-12.67974105729434	-11.38728047270325	-9.875638850414617	-7.956437479109553	-5.643454888855558	-1.504906748118913	-25.85378894673511	-93.5095508828208	-165.6008041168814	-240.7466141486039	-319.5272637125001	-382.5025630765917	-386.1460186633471	-384.7875647360561	-384.4353414847616	-382.5124065766399	-382.0118536755146	-381.0450533211958	-380.0496428141182	-379.3744297338159	-378.3504750422633	-384.4230880931945	-386.8178911760633	-376.9358083189533	-377.6432810100687	-381.8636141121819	-372.9840179149552	-374.1633808357591	-376.0590264923877	-371.4989720818443	-370.9283794531312	-381.2352671099811	-372.1907243616484	-382.2722079750019	-397.9113890225056	-395.6137482641722	-390.7554641943657	-388.36865431214	-395.8354195574231	-379.6691725219901	-368.9321843724628	-376.2303175454737	-391.293226774454	-380.6806122711745	-297.2353837334713	-282.0453847457471	-270.8586245877211	-262.8329439682025	-249.8084975805797	-217.2893706161464	-204.9711524718641	-193.5413612394591	-170.6037738686708	-132.8938688429819	-98.00148869263472	-98.23680619353377	-104.7217535333192	-99.87044713762356	-96.78331062983563	-72.23019735124154	-57.4746409379602	-57.14608668373722	-68.42668586294758	-55.89089202811226	-41.10864420098335	-74.55012737245045	-78.75722115013014	-70.7062025314886	-73.09761037236331	-104.9933814424182	-108.1461761129005	-115.0361161977491	-111.4430694441936	-106.3137588411803	-104.4554121468443	-113.6484952335761	-127.6562341335223	-118.3813646615558	-109.7330010787917	-107.125438711876	-101.0767959304427	-94.20470441837136	-63.92629716815361	-47.71760186755671	-70.08179700667552	-76.95448591259787	-92.1483820485613	-99.48368186144484	-98.81601463651339	-90.65091873282063	-92.64122869323222	-107.600402967334	-117.7293776188782	-121.3248500494444	-125.803407543527	-139.2135970188857	-119.3395912664756	-94.2639317800344	-84.09566580857256	-76.75504220882084	-60.53579456281653	-46.96365141455919	-42.04175942270194	-28.72843507355418	-14.1772789272224	-17.55670158162093	-15.34751406198842	-30.18670442218638	-36.99808311021064	-28.98052410798778	-24.94351145532755	-14.28528740389743	-14.04568123534045	-28.57813632188459	-39.23377090932092	-42.20058627652497	-50.25628963180679	-40.6362725473939	-26.72866550063071	-7.412774199217665	1.122689782456376	-25.68470150363396	-37.9569775101304	-29.96832451538785	-23.78909445303427	-11.56665462080977	-13.47459317922079	-15.9793298946756	-13.4108099227478	-25.27471547923261	-24.45635046465389	-7.421867269228272	-32.06389434005825	-45.33883791794079	-51.76014633415451	-52.85768997937237	-46.09439917969434	-38.43037181892987	-35.40020153023804	-41.82231112743455	-65.38326170962665	-80.64057656211304	-83.03977413218712	-100.7618243608976	-117.0376855089474	-140.2753023917603	-160.8396391477568	-167.9061115099163	-161.1561384008205	-156.2065468048564	-147.5617501430592	-155.612735278669	-154.6349954685618	-136.4338107251912	-118.5069671087647	-112.4403867825347	-113.0599100687213	-121.9144803060295	-114.0064897333984	-114.6031301079344	-98.60405794841927	-91.70187119899879	-84.35436269426538	-68.95635448382308	-53.57059592466373	-73.98883762377113	-99.86234192344722	-94.56589943880283	-90.56723041739548	-89.32658039281984	-79.47951381182128	-53.82563261753873	-57.46719857960497	-57.35913457851086	-60.06872440414753	-66.10361558599618	-77.49039037350914	-85.09188384419167	-86.60999399950487	-87.08863664953259	-91.17292690513284	-94.1570802500338
-15.7443457530824	-14.15016242873492	-12.05352299036966	-9.114788746898739	-6.545337943569308	-9.616685592760859	-8.124576238273534	-6.33397184840635	-5.375172852870236	-2.570785268696852	-17.01636956978643	-80.48840133970339	-151.9365782792194	-227.0650212127755	-304.8686415097717	-374.1834355776812	-382.7407141290184	-381.8487720757954	-381.3197400032375	-379.9086989650542	-378.6823556051817	-377.7902446227313	-376.850665458472	-376.3735437830966	-375.5152588563356	-383.8888432825763	-397.3550612159871	-387.2960850522209	-374.9521191815281	-372.5602858370448	-369.8111852676121	-381.4775464489862	-405.7857482561257	-393.0644536266909	-387.5463384125786	-406.3601861211212	-401.2250669297131	-395.0457001384124	-394.3588851322158	-391.8168353805748	-387.3743423050045	-385.6839260869545	-379.9470871665349	-372.0897812434678	-374.7044835250863	-395.4014988911647	-395.9466069858449	-368.7468965449228	-301.0402456918075	-285.6613816690108	-281.9423059918865	-267.4316524261189	-215.4300995304955	-208.637957385189	-199.185193100026	-166.8221801785492	-169.8368972057706	-149.128528665678	-104.7782353770017	-93.70214879189422	-87.67817978028637	-89.42079510849948	-94.9163575839799	-103.7309339237885	-82.94866371159748	-62.17033542037217	-63.87745581895092	-100.1149384246658	-96.20793629420041	-94.12107933004268	-94.96778866969004	-102.7302240268831	-97.09214736043862	-98.75412965775507	-119.892063475	-117.8088305518827	-112.1368723199817	-136.1444777894623	-122.4349142600822	-111.4379892138637	-99.21950692512399	-93.62787879086994	-102.0218270123514	-102.9204542432984	-102.0781673232059	-96.27060938785615	-83.30990964365139	-75.05579259074261	-83.64527120029339	-84.92324087280394	-78.60035840565297	-72.25105944156252	-87.87960610379162	-90.22015157073713	-105.8427575966339	-133.9697242807946	-138.8975689833814	-133.1539236314559	-131.2208340894631	-112.8587943217144	-109.040828270403	-108.375976415454	-81.63658817443667	-62.95386116480125	-57.79780512441477	-47.1153572142847	-36.82931700206711	-28.08604603535241	-22.52301648717031	-25.28722079373466	-20.24957924615495	-23.53628571015861	-30.64280876893406	-16.26755332400205	2.060304535410154	8.796144674180738	9.229741324988851	-0.7579508312568066	-9.13346678908303	-32.26300414729258	-35.07632793100703	-39.62294886136635	-21.6078678677676	-4.230490783451273	-5.329100553441918	-2.418229970827298	10.70587151895995	5.282510029714274	-3.685444287721793	4.298787446198247	-4.424861814894683	-28.99158180127125	-21.99691935529654	-18.58986466017663	-17.91908657187537	-10.72759171874563	-15.74047509053264	-11.36252319316134	-37.42693878908347	-40.66174927966404	-35.48674368786499	-32.29545884093082	-39.84640946947417	-43.83352388958843	-57.69152108518921	-69.72029317880816	-75.31583980200838	-80.99804102817694	-94.48243496403995	-120.339174461616	-147.2119182611852	-145.7344137875072	-134.7134786028114	-121.0187015375454	-120.4876239599579	-130.7219456775446	-121.7170039479306	-82.83250234375043	-71.48649114410819	-70.50213095722057	-102.5081006244314	-99.54417951780636	-88.66870308645389	-89.3528212534074	-86.35361863315114	-82.3703190484589	-90.11940299507296	-84.42074313673089	-77.41729310170808	-61.70701932611425	-62.2070105448274	-99.564142090259	-91.73330737399095	-64.81502797964532	-42.20853844584053	-34.58603955232022	-51.04818370977969	-82.84454751674161	-83.21533100859108	-74.54589657686824	-67.85845909155159	-59.07109344730006	-62.7058041350744	-84.10575422716636	-91.23465925216226	-97.07444984638937
-11.15382688416503	3.505917402429986	13.10067120958311	16.9413850113217	9.26539018602972	2.385719833605151	-5.185605021468291	-4.471507418938785	-2.447755059728507	0.05201689647216767	-16.11748427674974	-80.71725951939374	-152.8920151236049	-228.6729771227427	-307.4761157810034	-374.3961297189258	-380.8526239683148	-379.8537113876892	-379.1258687188763	-377.7287216601576	-376.9950673064018	-376.106473422069	-374.7881030947454	-373.7941485350509	-372.8304434619596	-374.3596125782905	-394.4503226080976	-383.8101416193021	-372.8069676674276	-369.6450379454386	-370.4256376283365	-372.4746009644883	-409.6761051040447	-396.0345746604425	-398.3902592828569	-404.7187872620667	-396.7753645500555	-390.6631946102388	-387.0352442947554	-387.4731809512215	-385.6236748599623	-384.1827616318142	-372.678414544983	-359.4384907088734	-357.251418083515	-384.8567608938639	-394.8326679201141	-337.9823387663277	-297.2752332241585	-288.2087811490055	-278.2888687600811	-267.9586412125666	-224.3063304439972	-194.5750521552679	-180.5954343609342	-179.3735281678441	-157.3541099380122	-128.3443488051462	-104.5866629025469	-88.78333531353735	-84.14205260030479	-88.32932227781924	-96.82687293639844	-78.07795030242062	-64.95131048008568	-48.59913767831893	-53.60366203551894	-103.783669587824	-105.7344368253654	-79.73732859059203	-88.0063819168671	-117.438850573593	-118.4018442810699	-91.81067630547625	-78.64654582331934	-116.99628768117	-128.2712691023521	-96.21358497556321	-60.91499301000636	-68.56396588744815	-57.89790105173506	-53.82007017048147	-68.37064965020875	-76.98204459411613	-83.8004245790658	-74.84075055716789	-69.36517485763136	-57.93900464761299	-49.90078393605773	-38.89012032087203	-48.8263344915319	-70.68597738239777	-81.16286548100385	-93.54674528338052	-107.275027074962	-128.0277572095541	-141.3748542682414	-140.5792618048844	-145.7533383030213	-123.1943071267937	-111.6650078076169	-87.52891746397364	-64.2126607862449	-52.20523420263044	-58.41906804885696	-54.55702200402334	-35.43735938457149	-31.76623256242715	-28.55945896281156	-21.58376753302031	-20.34110147877072	-31.24649746506611	-39.64610339298088	-18.86255957689718	-3.618714841843143	6.672215957558649	-7.963697086806206	-14.82613951149571	-20.57535571836121	-29.55385489112967	-25.99307724388291	-32.18189099169098	-31.51203158044405	-36.04864900241148	-31.72223067424511	-29.04109942835663	-18.47687257760145	-7.926146354826699	10.69928093326806	12.79168382818014	-19.61226047903912	-6.230643695469894	13.27009224253197	15.67655101707572	-1.520391649235222	-17.23906746512196	-17.946370500954	-23.97537362413115	-37.92889393075001	-46.64239672389044	-40.06133911044918	-41.04440770886703	-41.79511999487016	-41.69021684847831	-45.77736108106831	-27.27679819283711	-52.39364184535629	-89.50780188200872	-93.95852682187791	-116.5092193289559	-132.9076373525264	-138.9814786496747	-130.0181969082846	-114.2666850392502	-109.3798635530305	-99.38327286762819	-97.7063375489949	-95.17073346621765	-70.68492828782865	-63.39975107855759	-94.4456552564742	-92.53481773251207	-80.30331945420556	-80.92464554332594	-96.19269361924768	-94.12241737814736	-98.73811579807341	-89.3281517873383	-88.29933072311849	-79.99882891478546	-70.14320226354442	-61.96537326670946	-48.58670871017614	-22.95716637492671	-9.19606907320167	-23.63619968974999	-46.32421014396559	-70.81617569521944	-63.40432321186344	-46.76275651490803	-45.87293776214148	-70.62368211388747	-86.57420931073727	-91.29457715718689	-88.68345749443853	-88.49102198840859
-11.34909475765707	-10.14945937669793	-9.584987414430088	-7.615789430894182	-6.812566215226553	-4.20078272827871	-2.881561289796025	-1.531833964909964	0.09098200724338312	2.12243380552485	-14.9958203831338	-79.83734967471656	-151.5205883685276	-226.8721242923627	-305.409800790246	-364.384462850335	-378.4145210467244	-377.8534012353267	-376.9778127204623	-375.5322538871285	-374.8095646858782	-373.815636622808	-372.6348187285868	-372.6620419169768	-371.02120256054	-369.988054048052	-370.8602594084695	-376.0066645583165	-369.2675334486235	-368.3559401897051	-366.9200594947629	-366.9153428410954	-391.5152723860732	-367.6024745853848	-364.9898398759088	-398.4136721713954	-395.6973576012194	-388.3366816292132	-382.5610561364352	-385.3157243995154	-382.6206838857499	-381.7547454721561	-372.4856208562377	-356.6908719116936	-357.3181009454585	-392.3994819152224	-383.8612167609996	-308.0352695496628	-295.1420121451189	-286.2983656756619	-279.3462975134423	-261.537031509572	-234.3349930013027	-211.0419832162738	-197.365777503612	-172.1113770871523	-131.7517391367518	-109.6560741700821	-94.41675977603768	-83.8830379637709	-84.40630121771517	-103.6484394200058	-95.42718141316669	-67.54598791849821	-63.78147226077704	-80.70428636823192	-72.57030922497864	-110.8194035369894	-91.00619976893074	-61.11643133346837	-49.32938439258834	-95.66306535395535	-114.262002292292	-120.910859095193	-91.15752350496655	-95.43801168048282	-87.23683318084954	-85.78169252790713	-37.59932845076315	-23.12058068609849	-40.81592419581153	-43.05571519477348	-52.18130807794017	-62.29306561515216	-77.50038548649349	-76.28155352544871	-62.78351005281644	-39.57286498606902	-25.29660582797118	-30.63606222731585	-25.65981138430976	-28.38538608624634	-43.27719015263494	-87.45109416546939	-84.74517783004268	-114.6756153382045	-114.5859537437498	-114.5641287426099	-124.0608068357158	-98.58979077520576	-79.77068990472145	-83.41619651155389	-77.3167643695291	-73.6144014633993	-64.09875504350305	-58.83448846371215	-44.08311032167512	-37.76243396128109	-38.08557553297823	-24.11334617317897	-11.63798529305436	-34.12028854074993	-55.19562912756123	-50.99071163462935	-39.10395015409199	-26.25091664485382	-26.43318409444589	-31.13628346439975	-35.0074944576088	-30.75827703705596	0.04552277291438145	-11.16923494926101	-26.56139888002087	-38.27192283823297	-38.50151849525338	-34.10087515088327	-26.1002269566564	-26.07279658726861	-8.858602767203138	1.211831548456701	11.18764591900285	14.78035390503217	14.53847813890292	4.166684417774917	5.177732938699251	-5.825543168112119	-18.295806605054	-26.57428355097252	-36.57697324048269	-27.43486600982882	-45.51990272389969	-50.4591553209994	-61.75628281408967	-57.62705120522946	-58.94649381847915	-46.0050548091981	-47.79804548231044	-53.38932231476417	-56.59601746607581	-74.81886847722853	-109.1309510050352	-124.8040758583075	-103.7077251174363	-82.12213800326111	-83.93020717885224	-109.8290764637173	-104.2094492875062	-107.5706660929266	-98.12995581331688	-87.54011005943465	-101.2715939262813	-104.8793613831984	-84.89717594806086	-84.95361623281082	-83.27318877218869	-78.37536264506633	-87.00128014243393	-87.18552018883986	-94.82942989288944	-95.05883851916292	-93.76158350458945	-81.53514020028149	-69.58532061073024	-58.53542239311179	-50.97332355095068	-51.54616388013883	-61.81778875695687	-56.81043855891232	-48.71981544354503	-42.0181581389204	-54.90212180541158	-76.81188309364015	-77.97153902603074	-92.77330261858378	-84.64724905966648	-69.45640762663336
16.93598303578378	-7.42520883163894	-7.218957738138357	-5.410049133836139	-4.259421819725105	-3.266969699304752	-1.233195841551463	6.749104857853951	22.4486000119596	0.8148692740724641	-41.80673096949187	-109.4398694400628	-183.4734249075279	-260.233437407619	-332.3087030057987	-375.9926411611071	-377.9671331074463	-376.541622326692	-374.9677144456229	-374.244686389117	-373.498988836964	-371.9376359611321	-371.0316814967286	-370.141422798325	-368.8768041459763	-367.8635747554578	-366.9269684391323	-366.0319356164798	-365.3505315315606	-364.5238755744684	-362.9894210144336	-362.4696382587014	-363.9068773814282	-362.1866980201257	-369.357848143211	-395.7454017655553	-390.8358151032319	-384.9457480441753	-380.7725746257121	-381.428136437106	-381.3548894622846	-381.8196239889406	-369.5744004508086	-356.1546380146914	-372.3015415974341	-387.8523377490553	-372.7630928414077	-319.8801262755908	-295.0268052057483	-280.5152425440951	-252.9446592997403	-237.3539084097558	-226.3930556359697	-216.5704471525306	-166.9161677706039	-121.1982162692738	-110.2438259285154	-101.5841159382666	-92.29957941205657	-84.96065627184316	-85.26607748309652	-119.2079031711527	-123.7053932636753	-100.7038787771946	-84.18566590479668	-99.8970452812153	-103.745749849015	-120.5438129801079	-112.5072636578339	-99.72546848122062	-81.17521151515712	-98.6837686816196	-93.18803904049616	-77.54779772515303	-79.35008088124812	-87.85973573581202	-91.14745739761116	-91.99923174148972	-81.70562412140106	-58.97215972032711	-54.95253078801352	-61.9338716241146	-44.95121753569998	-48.68103873339498	-67.77259365693089	-75.90309743995113	-60.96885992895363	-40.83202304040287	-35.39814131983246	-37.06991174479919	-40.69831867625669	-44.9518560154296	-71.45531751936238	-65.98800705578782	-94.15111742810774	-115.3326239478753	-110.973033371136	-95.09311762044263	-107.7317643353437	-99.77333245643126	-90.2189159305687	-79.17714666902867	-64.27504786422554	-60.78326389699657	-60.57006531021852	-66.95990933688307	-54.17821903978069	-38.31036998219327	-27.78798956919707	-17.94076973860513	-10.68192519998638	-22.94889338519886	-22.74272050896121	-40.16886928076451	-44.03782119760689	-33.44920356808234	-23.40123836421583	-18.55122437986438	-10.83498934615255	-35.88354966867365	-37.16131537420165	-23.85221034478889	-27.65972812419778	-51.6882637295048	-45.3407869864447	-35.87692498078331	-21.8345364452816	5.711657141169127	6.686817380974588	1.246791984299364	-3.306100481771466	5.526790455605777	11.62762609141717	7.447973015403988	3.829420773788939	-1.763723343641033	-14.5356735815964	-15.93106906938266	-21.69009435844953	-20.37679626921957	-32.50835912696186	-55.92369104327798	-53.38552005117873	-53.0492837166114	-59.87200536400047	-67.82504746118792	-77.18841535156264	-71.53020551572143	-69.1048937312857	-107.8459071574335	-125.8865030142604	-116.4752430702089	-95.22761884757608	-80.21050556760093	-85.66715631895289	-112.7347593141762	-107.4268949337505	-102.7308552527339	-112.3657993404668	-112.5829543542564	-107.1073420441755	-92.86208443388597	-82.39845009190702	-79.35116959833135	-87.17913126850306	-93.65334718221675	-99.33937886479475	-91.67928043726579	-95.86377251842157	-96.0432634550038	-79.7985812960373	-80.35237070643836	-67.79396264910824	-56.87059522629781	-46.47052663297154	-49.32827870178895	-54.501248482628	-71.41310272343907	-63.90214558524028	-46.61546440671421	-64.44343307390662	-75.24928343707649	-77.2317498612538	-78.27950770313691	-87.97880769751367	-88.03301882002711
-7.32207752201856	-5.832636167689031	-4.692628632732351	-2.832250475466424	-0.8402685425056404	-0.6088384475498856	0.2986118849597688	2.984224051448109	9.45955079460245	13.59722821277845	-23.79998933013954	-90.9199989338864	-163.6509658600068	-239.9524478079868	-314.9534453699322	-351.4559144808304	-375.3741116300114	-374.1688244627654	-373.1562403353724	-371.9108685754	-371.0149291526004	-369.6964479044154	-369.1647769088592	-368.0007008893647	-366.6550754048798	-365.8193570739797	-364.8735654028155	-363.7748114557116	-363.3158705883165	-362.6547984284227	-362.0145875011042	-360.3162214924361	-360.0088904455404	-359.3899320723447	-358.4698107039886	-360.9663579389353	-385.7580823831232	-383.1499643845581	-378.2870816989826	-376.8314393432848	-394.1856523288565	-403.2054843126489	-398.2703992659661	-381.3079907193949	-392.1866355206968	-399.8356979725002	-377.3045733594432	-333.7640532726575	-302.0049152807509	-265.3549556912687	-243.4638835643702	-234.2787646189686	-223.0543854378457	-169.1182268267266	-125.6227308572686	-96.89430261152222	-87.46042537141238	-91.65784907215277	-89.88302183999082	-90.23705977576554	-103.1175461123889	-112.8348882268535	-98.88636510030187	-97.11586964923254	-106.1329516501148	-112.9879716731679	-123.1221788498227	-121.5010106314403	-121.0128352692369	-107.9503335064986	-87.39647267350063	-69.62862069983424	-83.21810265086816	-81.14122176687533	-67.41428616459001	-75.43526845032005	-74.78404229143382	-82.94246602824813	-80.24657776657472	-75.66540019252682	-68.43785331265093	-57.61930001837868	-40.82027106408009	-44.58702110954658	-56.07579019109647	-60.3761514820896	-58.81694312152007	-38.48758164639759	-26.75232263188957	-21.66880539002193	-25.96798912516022	-64.22276166987069	-89.10630304953719	-86.80205884082386	-94.75324527279452	-97.91858246696268	-130.8380128189874	-118.7818791162568	-108.0669621551928	-39.7550274422224	-21.91807783483648	-2.481138676429708	-24.49405474330547	-63.50858824825411	-62.20300818905599	-62.63455676318796	-59.51294689681322	-37.68275598102571	-22.72764471552404	-28.58770147249265	-29.81148963896561	-19.07895464411587	-22.75503660103578	-16.69315355952483	-35.19242897223324	-32.24445817399601	-29.6817000179912	-7.065679439081293	16.58304981366942	-6.031591408881127	-41.32893602563894	-26.23568905425589	-32.12467330021349	-35.36285053390765	-23.6662535950523	-15.16664841555365	-28.76755572429317	-8.950060535093826	5.836070843300291	13.54858337992445	7.691540458224438	16.33047384613468	25.90127592137299	12.42421300962749	8.190515372359471	-14.53269122870449	-18.59476348065627	-7.48722774015738	-7.741481095420539	-17.2321689793103	-24.80940871753967	-0.4553593286167938	0.4526305938461803	-33.47217716497207	-58.02742070508407	-52.04079373045948	-59.510568111059	-55.34690768059988	-54.34712518201889	-73.2819001854773	-117.3047260558547	-120.5828488671783	-97.64873744154983	-84.45530494310839	-101.4398214084908	-111.0153490974438	-117.2902496323368	-117.4056425483165	-121.6311438696113	-115.802337236873	-102.1052481048509	-87.29678550485289	-80.93404974666271	-86.93595211081907	-86.86876697743128	-92.30933358889848	-102.574716493745	-94.92398985385267	-92.71134711794036	-88.12070959714487	-81.38045613089747	-67.37700455043964	-55.70108479859169	-56.9732311317432	-64.38280032640247	-56.82306157355035	-41.26358697861718	-26.26013373987917	-35.03677890754929	-48.99802808483074	-62.52373209719573	-55.54579094946888	-46.9093904299263	-67.50910164120864	-82.33342029641074	-95.61751318188016
-5.025275290849009	-3.686262239963554	-2.988136863698742	-1.525981185512819	-0.4129139741280596	1.697942764167465	2.775441604295764	10.26519575096651	18.89263241345097	0.6338118345960595	-48.17992560310256	-117.3503984985462	-191.2851501977441	-269.0370890691299	-342.185830193703	-355.0102983794989	-357.0562794659759	-368.0531789185434	-370.352510968779	-370.1020938766462	-368.9746213308807	-367.4421725104865	-366.1999095337341	-365.5770497443681	-364.3098606330437	-363.4140626500876	-362.3656492259632	-361.8444091018048	-360.8629955795539	-359.917729217222	-358.9570279768485	-358.3882996923514	-357.6887872886924	-357.189341493881	-356.2466416125869	-355.2406288327857	-354.8041580364683	-354.3439846511886	-373.6303354092017	-374.7685841797407	-404.1426806111081	-403.4635641123802	-335.9364675614029	-352.6218784814133	-362.1789477609306	-372.0150093106097	-365.5313558011555	-323.9564326876406	-291.1901248943114	-266.716819549541	-243.5364230880074	-231.7123019386891	-203.445754402322	-151.7909324647258	-104.9117993055464	-87.07226633514188	-74.74625383151817	-61.76514530602083	-58.37039794959264	-88.98635352300715	-84.83276579792084	-107.2664000065494	-121.0129296617858	-118.8941719185437	-135.1628751596839	-124.2190356278788	-105.7647640777813	-96.78050989951396	-101.7637507206683	-93.14798479269786	-101.8092305223678	-93.57202735726588	-84.42685301347188	-97.9689377660971	-90.26657534171028	-65.58055235155416	-33.36338656420781	-35.8000709846491	-69.47107711529981	-71.96485886022833	-74.08087752029149	-55.58126044406629	-42.65974921211438	-41.5609571474443	-61.27496158543937	-48.59929027975312	-41.40463035091909	-23.63432534049645	-14.46385149321713	-28.09779426732888	-48.33228363028815	-79.59292978419188	-88.60408459647994	-100.1742048907581	-89.05922271021979	-95.2676242927111	-124.9124406670547	-130.7632541387127	-128.4356421975746	-117.7194837423089	-99.82150587494488	-86.21766486757224	-75.41347933380996	-78.29906604389271	-68.82802594274989	-60.31636862605359	-54.13069572129427	-49.85959004388297	-46.59308017600199	-33.01719057705031	-17.16070451161067	-17.71831704992741	-37.75696208935511	-48.84701435508072	-43.56267024376672	-41.391309767113	-37.49384528060273	-13.29967000559421	11.24384865381501	5.81424206836769	-51.00083981043872	-46.52798464206353	-37.36400614790097	-13.46818146651188	14.6872433147274	5.293464930923221	-26.30524099373895	-21.41822218673829	-8.227222297460571	4.162886440345886	15.17940126234649	15.94388561018377	27.25099162632367	-0.5457775638147666	-6.862146696132385	-21.19840516305382	-21.0631866021514	-22.40008081855842	-8.096661862797816	-16.62336383871576	-35.2526001268829	-29.77403104735322	-20.56886983736953	-43.02334759264232	-45.95963708103676	-45.32317641093454	-52.14156380227212	-49.32321600026006	-49.14603055668283	-51.63799436964143	-84.35634840284246	-103.9965614749131	-100.0794167124502	-97.78448118016149	-112.20491619887	-114.1239223714532	-99.92868344301729	-102.2615583795676	-116.5814602686969	-103.7085370898604	-97.02134759536159	-94.33614743606302	-78.84157213734682	-71.57692130697359	-70.72680987393431	-101.0240416978523	-113.4820649533113	-104.778009843389	-84.2107226176937	-69.83833796478245	-87.97111171544128	-79.0645629463192	-68.18652456650673	-55.33221796359643	-44.59480776460623	-53.1265451475405	-57.52785466780858	-59.59741255719317	-76.28553508229319	-73.62597420350284	-67.99306627915584	-76.16885490588075	-85.81826222499103	-80.77789115381796	-86.8652490668421	-81.79917518836058
-3.574897127631402	-1.934035391558638	-0.8757204607013023	0.3086874267039263	3.537307579623246	3.733200774686509	4.167137483097321	15.36259603102164	27.11945926431895	0.9005926024253483	-53.37586346974598	-124.6786511807593	-199.7671100479504	-278.0532054314451	-353.7660840019001	-372.7292280766174	-372.2800603861556	-370.3617991803157	-368.5999004377153	-368.0084541888153	-367.3023679418262	-366.1518225798529	-365.2261899432859	-364.336144195084	-363.0340624542337	-361.9470323629997	-360.9919084370152	-359.7914663606811	-359.3810212667135	-358.5349880240331	-357.3494680261417	-356.8836768787918	-356.2168290338546	-354.7842715545343	-354.2428089468726	-352.9535920741517	-352.2563072962749	-351.319732474953	-351.2077714141528	-353.7523890727211	-385.7518926463351	-400.5050868713648	-404.320006921407	-382.4659056500549	-354.4225845810317	-389.7171689791	-367.1432143939757	-317.5747175117905	-288.2665908622695	-264.5569369655477	-249.2321285506374	-229.3115689611021	-181.0416667224449	-125.4124175456794	-103.0608641709955	-89.98565800325849	-79.7374079486878	-78.68093966921316	-88.09191590099914	-106.6745248827373	-113.9771118279732	-126.2305895060275	-115.5556897610578	-106.7202230494107	-121.2318700691546	-130.7453516117446	-114.4014775876181	-86.8339036401606	-78.00996034341512	-88.87768793687019	-85.70287528965048	-79.27221571109078	-100.4922535144477	-90.70040781069434	-83.78516302282765	-56.72877321687798	-32.52517426797198	-27.50430620149183	-63.69122492278774	-77.29452887712665	-77.62128311244044	-63.4650628954754	-49.43480966884772	-48.64567122953645	-47.95089335036027	-37.21209991310508	-37.41085142927682	-34.5948328598962	-33.12102262390096	-40.70564656876059	-70.89326506476402	-80.28815310083303	-85.77246205336854	-81.7517485403298	-82.5720413899403	-97.01278547729265	-117.6283675976778	-129.4351639656711	-142.8907365144553	-134.7324294953883	-104.9785451125657	-89.43185264686588	-83.94907132898942	-77.55874867038591	-86.2672071038329	-80.14190476862905	-71.50883512040667	-62.88719694913448	-44.00845327209549	-37.78235694013392	-34.12495969676263	-32.15414065987568	-31.76169923836534	-43.31847977934086	-43.98421940884708	-9.762306642559054	3.166243365557449	-4.52907007491774	-19.90170681414941	-12.4211892563751	-56.47633089461772	-45.65352970669636	-31.44984172351081	-33.55006856953645	-29.60071366841464	-31.14076680645564	-28.25419963357189	-17.44100612759937	-15.38234839705649	-13.52130275236348	-5.463547754014087	-3.791699015752016	-9.875153594037727	-11.41491482182036	-19.60120640747164	-26.38212869710765	-35.3742419825146	-38.33089592121388	-43.89900300399	-40.55472893828789	-31.19230317385558	-40.10655284611011	-46.42442188562887	-40.66006970617076	-47.41247530475789	-50.14743669079394	-53.85835778471414	-55.38792903379021	-51.99326545343661	-67.19230800611581	-81.37896580968419	-73.72612506214267	-88.25935382640853	-113.4474542409319	-87.39389427265655	-97.61736234957391	-116.902234935902	-110.3598939722364	-123.0765371459302	-111.6728473985567	-107.7743827220827	-100.5287883525705	-86.91718479491533	-81.14127018200219	-91.2045103222946	-103.4501363859254	-110.3325563398017	-98.56667631331118	-87.72986808375788	-77.76998934162714	-87.53441656661465	-86.86783029192759	-83.36679836886873	-76.37168256364828	-58.94158985627882	-52.529817549098	-62.4555882219646	-61.01350169354745	-71.19258034637633	-87.40819889040364	-88.59237863242527	-90.0239442144063	-87.80517240306685	-68.66892025051916	-60.45329077538946	-81.53035156483483
-0.6579849444475769	0.1911954616800529	1.142829218498207	2.891734573905779	5.768805239709422	15.99170221633312	23.25300300725513	33.62005427665258	31.26767323886088	31.1296254398026	4.115869215937863	-61.94824145880358	-133.9835299745151	-209.0275175058571	-287.1142205400342	-357.7029346238965	-370.1278229004333	-368.7891846879654	-367.0444941237573	-365.859271030461	-363.1681380590123	-362.4024264646195	-361.7478672727818	-361.4519122709632	-360.7543411416396	-360.0003863982395	-359.2799108549778	-357.9874847742092	-357.5830083369578	-356.4716404030893	-355.2523927847763	-354.7365090481495	-353.6838518237251	-353.3547979203237	-352.2560279962686	-350.7614551326308	-350.1177191097598	-348.7894357534355	-348.4816788909326	-347.951466811201	-356.5374724745755	-393.7239336290144	-404.9763131400424	-406.4388002621068	-399.4120313171202	-392.6198612737434	-385.2722746325015	-355.7652714184409	-291.9486204018852	-248.3500154004717	-237.659113538747	-223.3868499372332	-159.9185366844094	-94.99012835166803	-91.69851209681849	-95.64482098683573	-87.30959427585657	-89.40456735759881	-107.3560458243207	-122.1952743661015	-107.1533911700436	-100.1050467591552	-89.38677323695646	-80.96640829660208	-103.837717308544	-122.0008517672998	-119.6711937334718	-103.4727759836875	-80.42321909682931	-76.33503543378868	-99.54232661205714	-85.95086578418858	-91.54519361709453	-89.47119512528434	-95.40145913476186	-85.38768350183301	-66.87978425745274	-52.41495351789717	-69.45536098228672	-81.96344060483909	-86.25821865146168	-70.38739686421133	-50.32031086010556	-57.19730864338686	-67.13269471101535	-58.23325335460618	-55.17947863568156	-48.11467318307859	-42.07086556385843	-58.96254253685788	-80.98547618145307	-73.58620495689598	-68.87838713264136	-66.5769393485175	-55.28642584081734	-81.65787978269367	-107.6287521725801	-129.8502525020848	-135.0182109881632	-133.3665063337811	-120.042226416157	-108.2362579638456	-95.95737067668921	-85.48415932062954	-81.64775064463782	-71.68193041825947	-80.20144083422059	-68.59061591581064	-53.10796402968225	-42.81288796392164	-51.23018591784131	-45.49721289734003	-46.23708012418126	-48.47446206984455	-42.21535481305091	-20.16859185859857	-4.636519065049526	-3.840857655131373	-37.67648440645519	-41.56279895694507	-59.94285319820898	-39.14415744492709	-25.28982232863757	-51.5849669828973	-38.3405423152638	-31.08064121630366	-25.68011022122769	-44.34971154032411	-32.59826238555496	-23.34067604752636	-19.88552502313519	-14.96261446325607	-19.86464441143951	-36.42973688482579	-38.14418929734825	-39.69151404969529	-43.75668657721167	-37.54567620432891	-35.09015495150447	-48.52450784951765	-45.89482072078584	-50.27166954953691	-57.86105100336715	-49.90790297539422	-41.77888971896357	-43.07455630448925	-52.14610655187175	-54.53005025694085	-48.27735090347102	-51.02651016150577	-46.21055311894199	-61.25461967534329	-91.97155298061614	-119.3163400233064	-86.01129929937429	-68.31238482819867	-91.39714343605328	-122.7698235112845	-124.2197568540988	-114.9467470558293	-112.1618174840502	-100.1336960551789	-91.80388195726562	-85.50136083403601	-90.6749034527773	-105.3717277781714	-102.6042852628934	-94.96733518428795	-102.8367044652414	-102.1033612072675	-93.71318904903205	-82.4968389533455	-88.70381142967591	-81.10462786630507	-60.99979563375584	-57.03500324748518	-72.74564721614917	-71.56335310918854	-61.43255219611811	-76.88143302756347	-93.61249754392685	-93.56980767687071	-98.65630829477999	-96.91750451949247	-81.75799522942674	-99.52845023902023
0.7240153985649442	2.152504896077801	2.595258095310015	4.106027451681484	6.831122397368205	12.96784496379297	3.556654677677273	11.53502539397337	7.521980363851014	-31.94212497174323	-93.12973339895939	-165.9401893042832	-242.4535147517899	-322.0377160176172	-367.9449124083578	-360.7561778314863	-364.6530214386761	-367.4050768638356	-365.9242266089512	-364.4477066114007	-363.2750635377669	-362.4325204682945	-361.5266200343189	-360.4363287581864	-359.5779654594834	-358.2557692111885	-358.0460254931608	-356.4570466273699	-356.1087883871046	-354.8208265509553	-353.9656574553283	-353.2851945286332	-351.7254350620898	-350.0832882668067	-350.6638699111465	-349.6816222376117	-348.6942305997891	-347.8495518465278	-347.0187190738184	-346.77973242836	-344.9617234313577	-347.0657924453232	-361.611356091919	-399.7769746486752	-392.31221103089	-382.9966044258994	-382.7768501376884	-346.3146016000262	-271.5917162095666	-247.8410850906253	-239.6090459462341	-199.9084560300622	-121.7017147088697	-90.71210984059627	-84.13033429574307	-106.8397001165926	-109.1753696872706	-110.6768668111918	-121.0640106651679	-130.0490119722637	-124.153837421523	-126.6978443179282	-111.9431416534554	-96.43009144139415	-88.87712528105192	-121.3380946767982	-127.012444774396	-153.4268672376355	-131.4379279554205	-117.9322626023283	-110.6286484720321	-103.3365102846828	-97.1001186246603	-107.0826465240343	-118.9972671821155	-111.9315721227158	-93.78301577241058	-77.92461758078684	-73.15536967493085	-79.32573290913211	-110.9388537453013	-105.063486790817	-91.64986989072634	-87.77723364603406	-80.19897098816517	-69.31323637719873	-68.71810797442561	-68.06595120062872	-63.78231506256174	-67.86574097216766	-67.02639646582338	-83.58410846745426	-90.79748625670538	-90.01560444750788	-95.9929357597187	-98.67179355429209	-114.8982909997914	-128.8321787487902	-140.1517304957285	-136.5090369775751	-115.2995143159777	-110.6477732321283	-107.6006743454971	-104.1856734497902	-93.20632996182138	-85.8871034427487	-90.34628868999943	-98.31923552577416	-87.65856505317498	-66.12274285180115	-62.15224389957388	-55.20904414093718	-41.98116646587363	-9.177275460084275	-6.202482854787462	-10.5099642969129	-11.28693679487017	-14.88957144550031	-41.17390990740586	-56.93599509173498	-59.77813154353305	-67.80719905875168	-52.89299155997043	-43.0815365469274	-33.42489509825145	-37.84459547925195	-46.31029170983641	-54.14918118542221	-51.38185520693168	-47.44145326173577	-43.56165477444927	-38.92493165145743	-42.36958396061664	-42.94538876223152	-25.23147330681081	-22.92609500278468	-34.9288375343869	-15.23857087345488	2.44537149447018	-1.373393324371989	-29.87986089423384	-68.54595563345316	-65.36839392913242	-58.54152644260643	-59.40085470330769	-54.32190405231484	-59.1044064211838	-64.36633450314258	-63.44171371161025	-54.63937918296932	-53.51915101209181	-76.20739499989037	-95.23294301178419	-92.89537744221826	-64.63914362577458	-57.28759232904434	-80.77160650929409	-111.5604997673083	-117.8300029844501	-122.7123931614764	-116.8722685531839	-98.0659535405606	-79.22801358062611	-76.1296793834785	-97.42035946449721	-103.2018788295701	-110.778829160182	-111.1161335326475	-111.7057327910689	-106.5230832393518	-110.4882978803398	-106.0183789828286	-93.85322442181251	-83.39505944180331	-69.1534229110149	-62.52887455813325	-77.2499157583305	-72.78142428164057	-84.54141107136098	-100.6482358199422	-109.3029694196362	-117.2961075509908	-113.4221791154873	-105.9697317995613	-99.93936412185639	-81.69389748829528
2.606168780762232	3.621321807037276	4.603255018152453	6.094234203943785	10.46516850316681	17.36195591832185	2.527746239270897	-0.08111803616557722	4.002576260504213	-9.068071274147854	-72.972757941677	-145.3037116488135	-221.2638206515907	-300.4219974908358	-362.2566631186411	-361.5911508136883	-352.522281853425	-365.4313859886708	-364.2254436296005	-362.4740287516475	-360.9653930364324	-359.4886016548901	-359.4618753274689	-358.6942825178233	-357.3782053591422	-356.4347688233269	-355.3390607167153	-354.3784469872909	-353.4744332939051	-352.363033909452	-351.6076137390339	-350.1235982191823	-351.6050103717176	-351.7061972669715	-349.0258574961047	-348.3893031379665	-348.2039252454401	-346.9856667438865	-340.3338910169568	-344.8101881445963	-343.7713744257649	-343.3417604303585	-341.9354960427044	-351.2131707271188	-377.622020458759	-377.2336590919212	-343.2038997376705	-340.555672703331	-310.333695232331	-272.6327587752516	-249.9286873465988	-178.8488112326274	-118.3576280265515	-94.53650039636932	-86.80133306770978	-126.0199597396115	-132.9060465087364	-133.7931449413562	-143.7035405245185	-144.7783699678899	-142.6631873519106	-138.8486381296773	-144.8944243485975	-127.9191734191086	-117.9388320712578	-157.0518936073322	-180.0095463873706	-148.5167731809108	-121.2160443890328	-114.5598898246444	-126.1563842369173	-127.213099840254	-117.3347265161413	-113.5518372079829	-128.6287074287926	-124.159442504021	-114.221397336571	-114.2315242572559	-99.81861244213621	-93.96820110402797	-108.9357546995598	-105.6690030449023	-87.54890038580368	-64.14210425686247	-62.97898926679414	-93.22070233212293	-98.14676386681697	-91.42655918610734	-87.49817358825197	-84.44249913696552	-76.76674616445314	-85.51542717544783	-106.0555232922969	-110.2103703645986	-97.97949557059161	-110.4418373111512	-126.2070888143628	-134.3177940051254	-147.4405736574783	-129.3861304063091	-132.0587561812498	-123.5261517255416	-108.9508118039239	-111.5935379329911	-90.75800234182418	-80.57673514556461	-68.69989132813953	-94.51214366466132	-103.2730922795731	-85.11441787246684	-74.78200265447708	-57.2076188711323	-60.28758145907443	-54.03083130641016	-54.50311223903446	-41.28661254031164	-52.41193684003332	-47.61729094117021	-35.90029064768549	-35.03080055822704	-51.37666409367642	-81.6849401651649	-79.71200046905864	-76.11061001987042	-69.52575502875726	-45.76468540349919	-42.70683324391132	-63.65637928865169	-53.34581484828141	-39.45483727604437	-42.56220296234915	-50.14493408775195	-47.67766453196759	-49.68997727393474	-54.3613647598649	-37.63691613762478	-55.93067061502927	-61.79739823359387	-65.0609434041815	-52.56107425611845	-17.6344026416109	-28.65402782226221	-55.22651788524701	-57.16728049639124	-69.24484884536849	-72.66842498623248	-70.9079559276185	-87.67200242952339	-87.58414259503161	-77.19969441441708	-62.19137920968859	-91.65636538317148	-107.2800629332405	-95.19786599870832	-66.87530950432176	-60.09416636432115	-88.23378798617296	-119.2898817006347	-112.2016349291416	-117.8192568537521	-120.4591399745669	-109.7080282771624	-91.20333708244732	-83.84984106040139	-105.8984883529357	-112.2303098333907	-123.9128958586019	-127.0498177359975	-116.3215979473395	-109.5785771336623	-115.4411868027261	-123.1543385931997	-116.7654887304852	-102.942418602815	-94.46447028496505	-90.64302705332676	-83.83557878917202	-86.15265748064081	-95.58292382182759	-114.6494110537857	-128.4527599363658	-132.0894664183446	-120.2177858927141	-105.8737315049563	-101.2475360950613	-96.42781949175935
4.647933851330151	5.188007888241287	7.124279368321226	8.996631709364351	10.17121695546135	12.00821732643027	2.909395060230793	1.586411969112334	-11.5073628987559	-56.93720977248995	-117.392123491733	-155.6077952815176	-145.1147410247432	-140.0931394378069	-150.6032191325451	-215.8009316564667	-294.2513408775529	-358.3627180053305	-364.5878601655698	-362.6661818610158	-360.5982171087736	-359.2011516142856	-358.0642618625059	-356.7074573840887	-355.6790305935747	-354.8077859228329	-354.0063610288432	-352.5376979315776	-351.9395478784616	-351.4538012045982	-349.950200464073	-349.332742565413	-349.1129863251591	-347.7749228858991	-347.5325631182822	-346.3763330164581	-345.6547899066009	-343.9582772191574	-344.1073575877304	-343.2688518933542	-342.1184624520989	-320.9123960843369	-310.222000565272	-338.2106743563967	-356.9361347344749	-344.493241693102	-338.4303987400974	-337.0844279099431	-331.1278957639811	-309.1456443869247	-282.6922933627995	-151.0398378617738	-135.0551593618976	-115.5847506583736	-103.922217418877	-141.206734647333	-153.4171114755066	-137.5705021695326	-136.5851706937274	-140.1617043597117	-151.0772625420543	-173.2607880500693	-172.657295019643	-154.0542016075389	-146.5301395026342	-182.663098694624	-189.0494142861244	-179.8185390235572	-145.3863743263569	-127.8977426184032	-148.0464931106464	-146.8343725898455	-129.6647333009457	-131.1400827786644	-130.702889734848	-132.0405013630655	-116.9743497880569	-113.6556942543124	-92.38002490579009	-96.65247533757741	-103.8228377550998	-90.37063366970341	-90.75980567829311	-94.33787367050445	-95.15710599453058	-101.8825839472629	-86.16442608953423	-88.11475703907433	-96.72544134254684	-82.25300062691298	-66.52752667214429	-64.6354634692168	-121.298663224625	-136.6025153466923	-144.2753318107787	-136.8383440830993	-146.0649299494742	-157.142231354644	-167.283272314247	-174.3762174062365	-154.8829321770094	-127.6268985620255	-118.7209077954988	-132.8320826920793	-119.4107967940056	-93.94246524446487	-78.77795964383068	-95.46569154282503	-104.4903100140743	-90.53681880978661	-76.99549405251611	-43.27840898120763	-24.31065266546864	-59.44942678786862	-84.53010445334689	-69.44739636979807	-71.23739287211646	-74.33308223162112	-50.0155819384695	-36.05099360759118	-51.00802680178299	-83.2926635820578	-83.76459315423511	-82.18059959966081	-76.62910455743116	-74.15658110925716	-61.61894298773791	-77.92512127308299	-77.77315592387134	-58.00719883645479	-44.24432394238596	-44.0113067473045	-50.97367407838578	-59.38210304171747	-61.12402309580193	-61.89820967210591	-71.47933075393325	-82.27641527672063	-75.90826678426083	-77.83682475785571	-92.3468148189807	-88.21375781610703	-78.05768305230339	-69.22947930246261	-86.30771715348425	-94.10056788128162	-101.8006099329961	-102.0368069907893	-78.71671932676077	-60.66287524163459	-49.95800123404979	-76.02944764042496	-123.2161719718066	-116.796436409532	-103.0660530683466	-88.31432804418603	-103.3323274577976	-136.2602393592371	-142.3310029635246	-135.6250709713084	-120.6718209159579	-111.5532573613948	-113.1141521886683	-108.2287337205988	-123.4777874275396	-119.8945556832338	-132.7962094444668	-140.2173706195842	-119.3197995374644	-109.2055431004463	-118.2304008500386	-125.4216817588067	-116.1088767655934	-109.7090977502733	-105.0453727733714	-107.9142150085225	-100.2664422544334	-106.755895654417	-99.80957401346114	-108.0617973739572	-124.2168399938782	-131.0761601108247	-121.5216840135694	-102.0087049158075	-104.2922998814626	-128.4375256275877
6.273893937957524	7.616958814271356	9.005771038335752	10.27008216774206	11.6110563699585	14.40807924642507	3.82508297399059	-1.571544009556533	-23.8633071919277	-73.2626408082503	-127.819670577596	-193.6264959021074	-217.7144882458207	-286.6127927184494	-354.3779368670927	-362.3133218333188	-360.9950950773098	-361.9563057282629	-360.2338163872563	-360.0153871597335	-359.3794081560151	-356.9979513078323	-356.0978606107983	-355.0150154202734	-353.9367139238647	-352.6323406425244	-352.3937898832833	-351.1782448614225	-350.6190913249083	-349.5002124354829	-348.5265039180168	-347.6585244337516	-346.9684363659567	-346.0828913517145	-345.2801679715557	-344.3680145258795	-343.6923127316612	-342.6895257486128	-341.973998746647	-341.20932126601	-340.4229228976477	-338.9409985413346	-338.5940472602374	-337.8405693234388	-336.9795570547675	-335.9617954894677	-336.0798236915168	-335.4955670741703	-333.7101171584293	-325.7826406891384	-269.6362163010378	-184.6755142882249	-172.1433341778239	-150.8384065228697	-129.6308986885989	-147.9340276553785	-152.0154569534071	-136.1618144468172	-128.5287526205383	-131.5507788456994	-152.7184999865113	-172.4762436718868	-159.0552417576279	-147.7542340450345	-148.1734261807485	-167.6474264562014	-188.1863006458312	-191.1700150516583	-165.9622766681882	-147.5288639160844	-134.1759869557447	-138.5514930175513	-153.7088463465804	-151.7136276117217	-142.0662726214157	-123.7243205573339	-121.9300325746314	-105.7566249207148	-89.63710487705941	-108.347970975484	-106.9033117526074	-118.4357830721418	-122.1329967878784	-105.9031470249387	-96.25408167987052	-113.3526701011327	-116.4386023956641	-101.1207991719299	-95.93562484677193	-82.13637099182097	-76.5935655720329	-75.28771374093623	-124.5879149862524	-136.2548679076116	-142.9334719616101	-137.3957320118544	-144.1969229097581	-155.3389681256136	-174.2326556243182	-187.3278267666429	-179.8537372424678	-164.2512969461817	-144.4239163119969	-136.4863807131777	-121.5705139591371	-105.4262881473345	-91.73321111618304	-108.3794634893926	-104.5110920480125	-103.8154709869808	-97.21993331150219	-89.21420326160506	-77.66840407832564	-82.38665002973369	-92.38043739988012	-92.0429736975529	-86.7639215696222	-67.55367798466602	-56.66188473797769	-56.80653771378832	-75.36207784305623	-100.4898308283002	-92.53378052710735	-93.41101676307215	-96.68131881306124	-82.89631371956921	-80.04243713623129	-83.40047285147949	-81.62781218746534	-64.34396908687154	-53.27160548249924	-48.29662162772559	-54.79481418956004	-61.88166763110706	-63.78374663083588	-68.97892026562323	-84.0635782843687	-92.80082575904305	-93.9197815302889	-97.24217787414267	-103.2325184460307	-95.63935459731988	-90.69178784908013	-88.65474957193857	-95.14654063717558	-101.3003123250812	-105.3192337427218	-109.4026345709528	-108.8592854963065	-108.7005902745384	-110.7052925134691	-128.2144628443106	-150.6953191722617	-142.7530173381201	-130.7976586030671	-115.3302191149315	-114.7577285915978	-108.7328183478413	-139.0978323495995	-148.7280713888605	-159.0733436694485	-145.9714833916448	-133.5116743153658	-133.2787210251565	-135.7508262479314	-141.5248526060395	-148.3276272206935	-153.5597361267166	-140.3911228268265	-124.4651382722309	-126.3796562673674	-132.5455541026095	-122.5026543422027	-116.3863933217892	-122.5452114604821	-117.5504258724836	-107.2259333741774	-108.1862874937565	-116.7229959741902	-114.1353386027293	-139.3238453506739	-143.1291769418077	-139.4381114652957	-126.5149202359824	-118.1341773300542	-123.2401897506548
8.546873803099686	8.992724718141289	10.24928040926829	11.69793438191866	14.34963292061153	29.87378606113825	35.91952368532463	17.08668382257778	-17.75237250604562	-44.21579969247955	-107.4951635312181	-181.9326103254594	-245.6928398448591	-273.2712430380217	-324.2854577676861	-354.884510223387	-359.2801564246104	-358.8073251914217	-356.8324185311652	-338.1314635727688	-324.4985583543624	-348.6406902032403	-354.332541011078	-353.4721575558773	-351.8816313345702	-351.5436225676193	-349.7976595480658	-348.6908203852779	-348.162308204652	-347.3120497191574	-345.5018511628418	-343.2789688925308	-344.0732267661567	-343.5104232021976	-343.1109602985046	-342.4025839764885	-341.5374568756437	-340.7700934658544	-340.3446283712572	-339.4483536122415	-338.8612946611039	-338.459407692238	-337.3547586356162	-336.8696002161731	-335.9234487421051	-335.3177311697493	-334.7656862886723	-334.0489682704183	-333.1772677377907	-327.1752161784719	-216.26357676226	-187.7515602172212	-196.6910906160517	-179.8184325250537	-153.803078693105	-145.9286411644001	-151.0357674379417	-140.4205570802568	-134.9517588879222	-157.4422506099437	-178.4668340641254	-181.4979771593229	-180.9355288835366	-174.8958177351689	-153.5159463009668	-153.5032808228677	-196.1734192701257	-193.719616561622	-169.855812360712	-151.5846692068793	-154.5645171632995	-159.3049614237216	-160.1959703099852	-159.2614981311594	-153.8412006494743	-143.4768617013873	-133.8492583652442	-110.9202176919215	-99.5825499822933	-113.6198233014067	-120.2843609709113	-132.4835182224631	-125.8201205368557	-112.7785255335073	-113.4175753871538	-120.0379205781391	-121.6148917134855	-107.3973178861394	-95.53995839471759	-93.48984342701215	-102.0338462187572	-99.13261801117682	-133.4116763833582	-136.3199676741231	-139.4508031348885	-144.105373430321	-143.9247535362059	-160.3614625999452	-190.4820032504177	-195.4645043816594	-190.3499850049779	-172.913070223258	-153.854507985897	-145.7068792853499	-136.8279457739923	-138.7622480766775	-127.0790754197556	-124.1627081888552	-123.899775931381	-112.6933580841481	-98.44883439648038	-76.05934151166758	-81.25923184641016	-90.19424291048517	-85.51642867597081	-106.3928897978601	-90.02146863532215	-66.50503997686076	-55.54438356163814	-68.08739379334099	-95.84621813727654	-110.7452888501345	-106.1216491042856	-92.12099560314277	-97.66695009012204	-88.25346066977926	-93.71485419228719	-90.9780156650271	-89.47332916579683	-76.09141710174333	-69.81033410482354	-68.98167381350544	-66.4261343217949	-71.29935024486809	-81.05663043705198	-96.02624363416868	-109.5086789951935	-95.27522984443823	-93.01868570329395	-100.8885303992385	-97.59335991162931	-95.78351897764355	-94.98985428083654	-100.0043091341999	-98.27742177086583	-98.77085427235255	-103.6336423132493	-110.5641977609038	-118.3145468550761	-119.5086552999392	-130.4102458413176	-144.6714536304876	-144.5855350328143	-146.3013319281632	-148.53478788246	-147.6225791977615	-134.803391267885	-124.4003055025395	-152.0258656502364	-178.2685740824677	-173.3979127819292	-165.9630345860111	-155.695347090387	-152.5144981772463	-141.8006092510714	-145.5535936606778	-155.1816500711528	-165.0434457073081	-158.5490567563274	-143.0203460728898	-137.2945756047223	-151.5549031749591	-146.1945631787397	-138.4157984315594	-131.4393017995372	-123.645297093989	-113.080874810407	-132.4258105685223	-135.3677153301507	-134.5237799855948	-145.6226486780522	-147.4577021843128	-152.796356798932	-144.3534865714262	-136.1584779700402	-125.5840976200844
10.88499882957584	11.92522836216409	18.13718601324271	17.93619911405651	16.27950442581263	19.44383750728022	26.09411571137809	17.28956914408568	-12.45298424278189	-41.74307167092348	-78.17739142523186	-120.4438127237394	-153.2676003139456	-178.4392101471085	-245.0196864501222	-314.8375400125734	-345.7439435065122	-355.7034707175841	-352.6666254882056	-344.1657771463566	-334.0287276282625	-348.0609710783915	-350.3483034646238	-344.6722391031889	-349.1708714372726	-349.1167245356	-348.4285807273199	-347.1858384955073	-346.5963840224961	-345.8079849867245	-344.9940750781387	-344.2109304617146	-344.3996576459102	-342.7681122153883	-341.8019552234734	-340.3082825642005	-338.8385303980511	-338.3235973229232	-338.1325642098666	-337.2077687986011	-336.5740233535066	-336.9121037608359	-337.0621752761057	-336.1482800043033	-335.1946210256586	-333.8222946921102	-332.6778943963203	-331.9807960956603	-331.4072517639362	-328.8540390425936	-212.5613320944117	-193.9128842369776	-206.0038115310285	-189.8774097903084	-173.6705120078935	-150.4027008218441	-155.8443683388992	-147.7393018499334	-152.4325488634742	-171.6659936407708	-187.4261512823969	-190.5870949053336	-190.6418596940303	-175.7345956188171	-152.0326681916513	-149.965202180625	-198.4585777031276	-197.4058479824884	-169.6901159157415	-167.2189061104545	-185.4471237857489	-175.9294453661299	-165.3987374404526	-157.9231866033882	-161.7969832763081	-158.0129594572481	-134.9253877000704	-110.5279477494294	-124.0512510428981	-127.5428099110794	-132.8338031666704	-143.1229189363985	-128.6006720400487	-122.364238922849	-131.2726595987136	-129.0690685586687	-121.3699998917395	-112.7865566681792	-106.4822484828063	-106.6320914865116	-136.4995596022708	-126.6220299396192	-136.7423091766095	-137.0540529145686	-138.6146560375844	-150.8503687679944	-144.8925515668639	-161.8518767344603	-185.8455513402538	-195.5472981648678	-189.984193797258	-171.1761876424227	-161.2494334950035	-151.7176255964166	-149.0097466303195	-148.4530784775226	-137.8309532632088	-145.4333167100708	-136.0318705660192	-120.8674749338648	-109.1079925777792	-110.4142955854191	-103.5557797751448	-98.23077538993442	-109.0756045507539	-114.6735269330613	-90.37242667420202	-72.51436999853416	-67.78840638034211	-93.55066507307509	-110.0912163959505	-109.4084517369518	-110.4783610236058	-99.89997940982232	-107.1570193645886	-103.2948589340361	-97.90284961509866	-98.41312548679252	-93.974278910902	-89.39284990481895	-84.18835966282967	-78.2786127906889	-81.65653713256421	-86.15991734423767	-100.0770417271662	-108.6809946216281	-110.1305562127379	-114.3737021867566	-108.3643063484334	-105.1754916816004	-104.4918653207774	-114.4949319593968	-116.6806074315498	-117.9011329003101	-113.1407084050829	-108.7634318476578	-102.9176190820087	-111.2766311602772	-116.0684913489887	-128.4680544259784	-133.4267199275611	-126.2660054592212	-140.7857806420379	-163.9185192789188	-157.7896568144491	-140.4733460712693	-121.6230970502403	-134.0888893475048	-165.1110585738701	-176.4930574477818	-180.0463856141545	-168.0144702626337	-164.7230987196927	-154.6218791638842	-144.8905018375714	-154.2535029411455	-161.9022828312865	-167.3269573388972	-158.6058400801185	-151.8641362933587	-161.0299611401858	-163.9975277344837	-158.4805294243452	-146.2953013709007	-148.3290635456094	-129.2890153220831	-121.3320033098271	-138.4698899279269	-133.4684674967557	-135.6706113350753	-149.085091091039	-161.999999093948	-158.801523153967	-158.6438684653771	-145.016251795657	-149.259536112971
17.12416376494687	15.90006338541463	14.29479676931717	16.64889288134421	20.46342942586037	30.44685887891868	29.46350995035229	21.75151679066582	10.1520668447661	4.400775093566921	2.115710760018487	-27.60984685092143	-78.82747390010275	-125.8977937944051	-169.7807710713377	-245.1775551497109	-312.6955064300677	-332.6488091414436	-352.0017860808449	-350.9089873899982	-341.8908548443563	-341.5067404020485	-345.2639509766905	-346.4440272840148	-347.5283660882965	-347.7844330835366	-346.6962285439405	-345.6099842240729	-345.0760157413083	-344.237740517442	-347.115599042468	-343.3870133261108	-342.2228194254979	-340.6041763827222	-339.5800074075813	-338.5081093834526	-337.6044595833867	-336.7119833574923	-336.6735751680991	-336.7318946120465	-336.5166496225654	-334.7350876988962	-333.6126267219509	-334.2474893516759	-332.4680181021042	-331.9126045870273	-330.9581584188332	-330.6535553769236	-329.8549358671029	-314.9674899788114	-238.4686584215196	-217.0052326974309	-216.8777533340137	-201.0033506077908	-173.628817680954	-150.4839207220099	-161.0623177611278	-163.2540210359656	-180.6887501305999	-199.9088312316013	-203.2529056646048	-211.1119543640511	-203.3780980544341	-201.0154576834925	-213.4919184681426	-212.5492700672836	-236.3610204475633	-217.0996533005417	-195.1471796087688	-200.1044278646069	-183.6986084871817	-177.3913170357349	-175.9069061246269	-159.7944178397644	-163.1466445175543	-168.1643532509619	-152.4524095046513	-154.4384933269816	-149.3284852137685	-140.8359969404221	-135.5345582871205	-151.4038525850681	-151.538582102794	-146.0978767212065	-144.943384359062	-151.6315576564859	-135.5748661800043	-128.2715024860517	-119.7078724175593	-140.3436711151068	-140.1264152998769	-128.4496326674972	-144.6852490741267	-152.8120219412423	-162.769531774995	-158.2434209173217	-156.7034914947295	-168.7858215937306	-182.9890945023194	-194.1970600919566	-200.6547418298683	-182.8397960914285	-172.6027995609118	-167.3415354331721	-165.0075945833507	-153.4764041438618	-145.9112078155317	-143.4435555225681	-137.1249589759702	-123.5277509186286	-128.6061020003927	-121.0424390597853	-115.5511531675567	-113.1105036543123	-122.9729201982743	-115.8448743612261	-92.89959404575001	-80.51054053203819	-96.48116803237787	-108.769163968451	-97.01364050994397	-122.381135874505	-114.4817021576786	-121.0617152782005	-124.2067605765028	-110.7039095296424	-106.4969959255181	-102.2163480755435	-118.2831763806744	-109.8927469816268	-100.6536788650112	-94.8195255066646	-97.82576286949217	-108.869502548076	-119.800367528626	-124.9112746493578	-117.1164873537876	-117.5911933345084	-114.9406875523533	-114.7741005079559	-121.8118949429821	-127.5756459556008	-137.8579033169719	-132.6328527122452	-119.0571035672801	-120.1136961058984	-120.8438067110375	-129.335076804443	-133.8391692068101	-139.709666855574	-147.1395536570748	-125.6730104234144	-144.0963959752333	-174.5155905139097	-159.8870126663649	-139.9348864490065	-119.8678208291836	-126.3866861469815	-141.8944037723526	-172.2912586568033	-176.9582078954631	-180.9546892173132	-169.5179651559748	-157.9685383317887	-148.6371932506069	-166.5924950282604	-175.0228802535742	-171.8779151166564	-172.4021068856917	-183.45553015011	-169.8895830630721	-169.4697669485568	-166.8286853464776	-164.6835189311332	-161.2942317445221	-139.738715265927	-143.4355114913511	-145.8348410896926	-137.5770179529437	-145.6306436673866	-165.87034984925	-174.0509986318335	-172.3072009205117	-175.2261098196915	-160.5066719491056	-146.7049374023908
14.29057673241715	17.02785726872659	16.8755765334144	16.5857928461127	18.72343086303226	22.72909056374559	21.19763614001687	21.87013659147451	25.05432329242834	37.92700064207878	34.9923431055085	-14.57511581500262	-71.41890664362444	-122.706984724512	-144.4695619445364	-181.8235842275237	-258.2245593126676	-300.4497070113185	-316.3721588500514	-325.7460774788419	-336.6728413479069	-337.8063986290811	-328.3483786621757	-316.096431944969	-317.8876717283629	-319.9516607560319	-323.8035007790625	-317.9488073342793	-323.1079150622562	-319.9181755176429	-313.122403016268	-322.324018998295	-324.9990650081746	-323.1569386699713	-322.6655892626492	-326.9928575888158	-324.6718287956385	-327.767744771779	-323.801065047423	-321.3740552886247	-326.42204409861	-326.9627661022989	-326.0047268778476	-328.4736886720502	-332.5181437206664	-334.4467399260566	-332.6992469974426	-330.6031843927643	-330.6138132458449	-311.8042558452844	-233.8585080157087	-234.5951087659972	-228.8649448270228	-203.236867834377	-172.4100214686626	-156.301374696676	-185.4688776889216	-197.17874372055	-213.3439106515251	-216.0987059652732	-226.5218276245172	-218.2171218689301	-212.5158594492779	-230.5776012248385	-221.611085102709	-241.9604245470511	-251.7836777449314	-252.5211146221865	-236.7447334730601	-207.3933305332379	-181.596895820753	-183.6540034723146	-176.8531519083255	-181.3303021631843	-174.4124235285919	-195.3048559341991	-186.787313101849	-175.4236122776899	-153.3491104938491	-149.5075800010869	-164.1576676425473	-166.4780807953675	-170.4728899538729	-165.8042741842406	-163.7415147719452	-172.9100797399335	-158.3224897791255	-144.4038188570345	-153.6682103016169	-156.4838368922574	-143.8642304502767	-140.8380048759884	-130.3771277165795	-165.1932614795326	-174.1545786841604	-169.4559232942733	-174.7758815417324	-197.1906757420036	-205.1677055506804	-220.5889931026672	-207.6343695727159	-187.5864095167946	-186.8246052863999	-176.1081295421836	-173.7976398966413	-162.4034860846971	-148.1955544194828	-140.7445117862677	-139.140122935656	-160.3698199013969	-156.6893359351809	-135.1816996143151	-130.9466387268547	-121.2750902854621	-132.2201706750558	-120.646995383521	-108.4666895403707	-110.664602211688	-116.371497859122	-131.0595398569625	-133.1976257846655	-132.205033596342	-141.7604879486548	-153.9503028441619	-135.1467483912373	-118.239418942168	-118.8067362002975	-104.9262160364601	-132.279229954483	-125.8400602092846	-108.2176190246326	-106.0611102172586	-108.6012800415946	-126.6075971621906	-135.0403000534495	-130.9904765936296	-121.6295908157698	-120.3445281493174	-126.1484962389683	-124.9319393894654	-134.723798880565	-142.840103306454	-146.9240629644165	-134.101953738033	-129.4857840215636	-124.4600328354438	-134.0359240090307	-140.610564242154	-149.18270375021	-158.5191344481448	-129.1761934878947	-125.2087997761361	-149.5452837352148	-145.9875404465698	-159.4052774833462	-138.683527710243	-135.5576315393775	-152.180885969989	-177.3686210966489	-183.5165346273183	-180.8023995529725	-185.7782057449465	-177.2234264985725	-164.7050647010212	-154.248184300544	-179.5777356431776	-189.2928100397203	-185.9075697649553	-197.5287962094272	-189.6165039936809	-171.6094753400238	-176.4049260725169	-175.404402421421	-173.5900302482979	-171.774776917737	-148.8244005087798	-153.8699554773676	-148.3743102073357	-151.1393761793165	-160.4399305408917	-174.2836624681917	-187.128657742859	-194.2045049695329	-187.9901958823	-176.229559336962	-163.4808224053168
13.99827870912884	16.40639986968256	17.24264582572539	18.39930262454669	19.3221786960907	20.91569313743102	22.77885455792156	23.94545242976713	26.77499036366007	39.58103113338035	51.53692280307726	32.92295703915832	4.930768024065088	-30.1825739828914	-70.81434402042561	-109.7536811827359	-146.443765959383	-215.1753236585063	-275.6648621590601	-292.8589338819858	-306.8535208061393	-311.3001992934429	-310.8653984890034	-313.9438879335263	-313.3733724824191	-302.6053848732444	-299.1808565224636	-305.409600289853	-303.9590835440247	-303.1061386635766	-304.2799279684585	-299.2716905916776	-295.4979293323356	-278.9341267487868	-277.035646278311	-288.6192299717501	-299.3028078286426	-299.8409268855927	-297.8848407584098	-294.999039580322	-292.9996836128746	-292.8083706497293	-291.2055757982715	-292.2466972326225	-290.5594674036831	-290.074509935429	-288.2113933965237	-286.8900038781879	-286.2557036868762	-285.8639692215197	-265.5017695006537	-250.4400862664737	-251.9132342271278	-207.7876049612428	-174.0365025784547	-170.5511013210783	-198.0961436984664	-220.1313711295486	-228.7475308767181	-238.0742446571833	-242.3487148979385	-237.5283259166118	-247.6664811680606	-262.7737404244311	-270.8798041102594	-279.3964008588393	-265.5515142074071	-276.844926480964	-245.9746353378825	-206.4516859665787	-195.0349806987538	-209.8269390691542	-201.7182919956479	-189.5577529022218	-201.5180240190031	-221.137062774266	-210.151799273723	-195.6106649068963	-178.0287537754546	-170.1695676840755	-176.8601380634666	-169.371850279386	-195.6275257706688	-216.1162468697778	-223.5110682586514	-214.8207949715105	-190.2326392283696	-174.3284917438543	-180.6303493595082	-167.5409928430491	-155.1297702019496	-145.2833262307627	-131.5102450225622	-176.5973567892381	-190.9288633365426	-188.6755930204969	-171.2558569757424	-154.3043056402015	-162.5879327780879	-181.1943758097209	-198.8686907690469	-188.2821874669763	-196.8182214280785	-183.5811949654112	-184.0608515675773	-169.5067437961289	-164.261449337759	-153.4036916627189	-185.4087184798447	-193.0430302792798	-183.8264302984362	-168.2352495675543	-146.4310404623574	-135.4191429555231	-137.8766516256438	-122.5307735339613	-128.738150091492	-141.6501444201176	-142.7832986474345	-142.2262996229402	-150.1935662473996	-158.1089699674108	-172.2851985819885	-164.9350848713207	-151.7418494811387	-144.8365632432939	-121.1397821716875	-149.9967107646331	-154.115043812321	-130.8179461211371	-120.7557631751793	-125.4443289322737	-130.6357421249332	-148.3349161423773	-145.3686806694233	-142.4137047382337	-139.2863941786965	-147.2646789125756	-141.5100090121379	-141.2378564036291	-142.1157478786976	-155.9672363316676	-153.1609243798886	-147.1174086068373	-142.7572013073391	-146.1257288915724	-155.3301050212971	-168.1317765602809	-187.9542339263762	-187.6370121700684	-153.8961765010498	-149.7654516115204	-163.620763513363	-179.2765414137306	-168.6897311058406	-145.5108984130703	-158.8192133846248	-199.604231776595	-191.3417495534474	-192.8668771522298	-199.4571686478399	-193.3484407137628	-184.4190901273781	-169.3024584607626	-181.29593920089	-198.8465585858132	-200.0056844181025	-210.2828377595491	-212.4495097306162	-190.1125489277157	-175.9904430669968	-174.4863262716034	-192.4489891432928	-182.0637722971402	-173.2772984926903	-168.4014482585498	-163.7997242323709	-162.8072213956709	-167.5488644776203	-185.9655541476251	-186.4908484736594	-212.9970323360378	-222.8699135932537	-194.0066327039517	-176.7823448960303	-163.11444674513
16.72963978783969	22.81337076332017	23.04247964965194	21.08140920568599	21.67654733115748	22.49702503482058	23.46968685948713	24.81606536335167	26.64324355881348	28.61588854543095	42.11113981161475	54.26539073731416	50.4892486141058	31.80480883399261	2.411892162827257	-39.61981180235443	-89.00410093058042	-120.2530750096815	-177.0319985807853	-194.7655656997811	-210.1368537992017	-213.1787697787572	-208.4406697439751	-199.6123153920257	-195.046489987665	-193.1655740711446	-196.5505993647517	-198.9371888923012	-197.1651457757029	-198.4471436512086	-193.8345652784287	-193.0556665158814	-197.2049230222211	-188.1866960053727	-187.3457768433915	-195.2308448049864	-199.1168537613189	-199.4661937507896	-201.9094367774703	-199.6333131596847	-197.2467693668634	-196.5336729718056	-194.277423462256	-197.6391939574993	-204.824267181628	-228.1712530756379	-235.225261314117	-229.0461245748044	-237.9203424656757	-250.4085631228328	-247.7909844922955	-243.8539774790804	-238.1942681047292	-218.2561071104907	-186.5076315005304	-199.2288851670748	-229.5174852856	-216.4892645728519	-201.2518345863494	-177.3537365634825	-156.7476126325662	-161.3488966781596	-213.6914512153983	-260.4030698788848	-259.6327541375929	-263.27743679876	-268.9369249006372	-269.7152360795463	-266.1160974462898	-220.5787054088678	-225.8364729193178	-252.3175914766931	-239.7296265263099	-217.9238316409508	-247.4034027869779	-256.2063708691274	-255.4919134371215	-254.1658921936646	-231.6110980369079	-212.6946740124345	-191.845256072507	-214.3266124142853	-233.7697754658365	-260.0835863900379	-264.1113919786241	-253.5387632211842	-216.0625710774066	-201.0106868784576	-183.8920698690455	-174.1444676959627	-167.8784663384467	-148.454237795982	-155.9188055032482	-201.3138930450208	-216.422699136852	-236.1623919722003	-260.9781413912809	-268.0716693138883	-270.6426430206551	-270.4770422192071	-248.1536196920097	-226.062040656849	-205.2475658076236	-206.0952813698588	-203.6708309800948	-193.2283870101506	-170.6571333146588	-179.2982395737812	-204.1227859738154	-205.5145816008759	-193.0262935049104	-177.2043103756027	-150.7957879956011	-148.1531986377719	-152.399251059114	-155.4230584971916	-154.9592814995734	-160.1435805558783	-168.9076924738787	-172.90976669512	-170.1599928669272	-174.4982181837223	-176.3516250882132	-178.1714268263555	-169.7146158261339	-160.4663049136485	-159.2361180357124	-166.0169524905089	-163.5331091187794	-145.1723964387228	-142.7281693261171	-158.149978620545	-168.1159235620334	-172.8644990041822	-164.764043049172	-157.4681363149327	-173.9211098932668	-165.5152726230225	-156.1883318831655	-155.1443175970957	-164.5088451991271	-179.022498874486	-169.1050734599145	-161.3494951249695	-159.425114192298	-156.3986591136864	-167.0738175737466	-204.1220749265184	-237.3952129248244	-244.4534042604013	-237.4853743759624	-218.116972033093	-214.1889237442037	-197.7539357900417	-187.9821440491789	-184.2822826860059	-214.2993003598222	-206.1161771688693	-191.0836816230973	-200.7108589464486	-217.0557863318154	-206.6107772557064	-193.1858327555825	-194.7987020199195	-204.5239039430636	-215.4476756915971	-229.2379278952491	-234.8222850757627	-217.880851070967	-192.8685489697364	-189.6894179291149	-194.0855251528394	-195.6294462778504	-190.9871653641416	-180.9305276228823	-184.6281615353673	-180.0331813564405	-183.6850479218661	-205.7310068339291	-203.9588933994845	-215.7068210542335	-237.3816497466659	-242.2226593878144	-206.1543558158377	-180.4035722374423	-182.8489785799344
17.93530534522199	18.46925474758493	19.86166095950873	20.494941448129	22.12118986745591	23.73475583313555	25.21297100104852	26.15070567848954	28.19404658418028	36.35078090617426	49.37900449273261	48.61678630191906	49.1964310711395	50.779202769032	43.62001071086164	37.50760822537481	-12.29888685816005	-61.57338854850445	-81.39580273795241	-89.22305568266933	-131.0797851008858	-165.9295946926305	-168.3073582468632	-155.4207864144302	-125.0820469389303	-117.4130854944861	-119.5320777423439	-134.413646171445	-135.124148361834	-138.9354505038845	-131.2572587116475	-123.005994356596	-138.864690508644	-148.425534951748	-147.9609224614479	-139.6851633127684	-148.2517947980475	-147.5409185346546	-148.5725972383461	-148.6351625361702	-150.3452115364917	-150.2273694147214	-148.6588175026623	-146.4844705010781	-147.3672622893435	-154.2825460809401	-152.4384740038824	-153.8065047139395	-155.8899999854883	-155.751713963916	-151.7797068512938	-151.6228222064295	-149.3735434246108	-141.910124856987	-134.9954945101526	-136.964702609522	-145.6774065827908	-146.5622580228535	-141.922353941838	-135.1796373409242	-130.571554629873	-134.382719259806	-142.3167807156032	-146.3619224746869	-148.4076736925733	-152.3350117083177	-156.609071117658	-155.6904752284276	-149.0154752457564	-144.9654045684545	-146.2969267111753	-147.4299771128967	-145.2192994702999	-145.8958575277162	-149.6652931784447	-152.1558178623659	-151.98158655097	-147.8994485624212	-145.4406803665513	-148.4892325953718	-148.2765560250943	-148.156001893136	-152.6385625255768	-162.0497512486659	-160.6292774696057	-152.5127990037225	-148.8882614181749	-149.6276560026829	-150.6179255256635	-150.8517417525002	-148.8564575832173	-148.8528580187444	-148.8196996935908	-149.624548287058	-149.494040576884	-155.1423285744901	-160.1834015350878	-164.1327342472957	-170.2193287897505	-184.3351149532446	-177.6633791071761	-172.8151900761359	-163.5944158129303	-156.878097648995	-155.3862561535944	-145.0604389188721	-154.9394509229783	-184.3148243393362	-200.1543564365778	-208.3620776853024	-212.6253352790779	-199.345358869271	-187.1751225639536	-185.837887208055	-192.2321880936573	-197.9625234733152	-187.2868990295275	-171.4620655299987	-172.9446421254126	-180.5686450042049	-195.0108080935611	-213.2457450409115	-208.0836685365512	-193.2564801221728	-187.7016369750698	-196.0199038213451	-218.4697540867567	-213.5782346946099	-211.4152829877156	-185.8270730282314	-201.2402757564836	-192.3674163486879	-177.0744222597978	-168.5858958189965	-180.1572216825382	-202.2766815365093	-206.7195597926562	-194.9599249806382	-177.5214747922028	-175.0252498158842	-196.1750419627924	-206.1770420887318	-188.0149300843267	-182.971220057123	-178.9252150922161	-180.6627859296966	-181.9906463461373	-233.8437384440335	-259.5404841335845	-263.9985543324493	-253.9194415828901	-250.04039835489	-249.6270682419625	-237.3830121387904	-252.3613184035363	-251.7603247719004	-228.1910825405171	-211.4914536062691	-203.1538487223082	-224.8799196381617	-233.8356254331917	-224.1202083341302	-211.8390684246131	-217.0648234450447	-235.768336838745	-256.2355028325956	-262.33513254728	-251.0792162645573	-232.6458723279754	-204.4383532499388	-200.352978362	-215.8208013228418	-206.5760354174886	-193.8946253218533	-194.4301301361234	-205.0537015096314	-208.4503293779496	-223.3655601247427	-224.4747667476237	-239.6249217492898	-262.8667001130646	-275.7848488761395	-270.0407872129907	-219.6482696684043	-195.6496047792237	-210.9077973923495
34.28541140490103	32.3034897182153	21.70964063517991	22.49906214996179	23.42676326868997	25.18032465725796	26.20877680972674	27.63122361792691	29.11311181855217	30.03665012697385	31.17752116984497	33.04336951224687	33.96714271818001	35.90907087735008	38.92095242890014	34.53202247996944	32.11225657012039	14.8344425436369	-2.106428182626928	-14.83686782559946	-35.52252694029062	-39.90435869634285	-32.46885613805011	-18.54773086144451	-11.22443826570932	-10.9682621008786	-14.20836794140817	-16.11879895150187	-16.3312418012286	-14.62227116314929	-11.39852264504631	-13.01431607611272	-18.18680153297493	-19.68703082471799	-19.44604211444667	-20.11884075596859	-23.80270845072647	-26.59113252016272	-27.27919859269917	-25.58707474233256	-27.96540303954032	-26.5245639663022	-26.83889486331179	-31.53946207414373	-37.36544217097753	-40.62414907628317	-44.48434678344717	-45.65864787843151	-47.54182367424937	-49.34222528715941	-47.5879595800867	-46.09714231305327	-43.41645575469465	-39.84932845307475	-38.66514650471049	-42.0267715446555	-44.53484882103578	-42.68627451394156	-38.03020836326067	-37.81997037250522	-38.98177739868282	-40.82236305716708	-44.67538708315624	-48.67203110003203	-49.95276692159484	-52.21846236870186	-59.20495035733745	-64.03510210627337	-59.10249017061653	-50.01451977034287	-56.78305475504891	-58.51592164128283	-57.62002923844187	-55.45620600549091	-57.5945264762733	-61.51535905845617	-70.79190673298859	-75.05987054742309	-70.22673211388866	-76.90750391401485	-87.89339122863009	-86.99210593503972	-96.38177220221422	-114.1916759198915	-128.1841775671779	-124.7809611537587	-118.4340194593486	-121.3660958960654	-122.7745234864876	-122.0346246453522	-119.6226168537223	-120.1923112891421	-120.0667806231859	-121.4257613365204	-123.6872483783753	-126.0338826259224	-129.3835178359313	-130.3172258017741	-130.1582463935051	-130.4773542718362	-126.6310291729779	-126.8996340756389	-123.8231769540911	-125.3534526468455	-123.9183006879926	-126.0504340374648	-125.8881909081821	-123.1244861649807	-131.1954202020634	-138.8065662130217	-134.600895197392	-128.5673745612675	-122.7776246795995	-120.1661345152273	-125.3383214196712	-129.2160550093848	-128.0414146257993	-125.122068623886	-130.6403566524457	-141.8597212381729	-143.9477155722184	-142.8273111574244	-146.3736182572032	-146.1734391397632	-149.9166920869361	-149.6710465090122	-148.9667319658719	-150.2356323348598	-153.265385428428	-151.7541590794702	-152.2354770112518	-155.6511794211715	-155.0881867699555	-153.4055529398429	-154.4088172248893	-155.6207181984792	-156.4583437035175	-156.9762905725169	-160.0564326370413	-160.4313012903787	-159.9074565854634	-159.8821105416703	-161.5333111755862	-163.1159445124266	-163.4187197567373	-165.4872582538246	-165.9044815825096	-167.4428134887494	-169.3474140405788	-172.1943906154521	-170.6647370346927	-171.2245502669077	-173.3536137276492	-174.3003004174498	-175.3707559951687	-185.7467966546313	-190.1968710367879	-187.3666130741419	-181.0698697910665	-187.4043753334269	-190.5881382200096	-195.5363274150791	-204.3522556913817	-202.8046831902614	-198.4214600122684	-212.6000801165268	-223.26580129337	-216.338126376153	-217.4580268050643	-238.5266945862479	-270.2811067589519	-277.807756163417	-252.2599445872773	-248.795165916213	-259.7809830618679	-263.934822950474	-272.0731296073208	-268.8360865424996	-269.4866736812773	-273.6505510690174	-273.7016091286445	-274.0456529074834	-274.1318480182025	-240.0840256365925	-218.8407153173798	-223.5699853219933
21.41281545983023	21.77435125014935	22.95653737773651	24.02791497314038	25.25698899089483	26.24457484200542	27.7590301213273	29.3169516427875	29.73968517004923	31.5124604362729	33.22919593801223	33.96738529308013	35.50870241845627	36.68620542124137	38.12650763973954	40.45170318482627	53.11034494040607	69.49708770591559	55.87195311075357	46.29806429636477	33.09028159332482	30.3488643392545	38.94331396649702	47.22811646569704	48.88317748504895	48.71559731349822	47.65326271878985	45.80476262839994	46.29421421098422	46.95737886780284	47.79292261896535	48.66865843273516	45.94176143548464	43.93329782530247	44.20663719230873	43.29092393934351	41.4144064722486	39.81476763750985	39.73460080980891	40.04033582650445	40.37140829862793	41.38801673152332	42.2083485406593	38.82242460278164	35.9700889051631	31.93980819345995	32.60375156968931	34.40003709557146	35.27896316795375	34.58248343571543	36.79954398394852	37.85446421539811	39.30742550824664	39.12091290673939	35.69728094857382	38.36615821042724	39.44176174812856	37.30508908132953	39.29238781452702	38.67723183910809	39.42512094218253	39.28634991563413	38.6930422763505	35.44169298641884	34.51102922308021	31.4578292852849	29.68241977118927	31.05073617864807	34.88096508149366	34.50218430995199	32.13778854210108	33.39367708284058	33.35459351811278	33.39983599956525	31.94945949584019	29.61336850601464	29.40906852590575	30.8021746224301	31.0062725649791	29.18441151273427	28.33924235433415	27.26644804475066	20.54743191329197	12.03810878127351	11.21687414494747	13.92352347680512	14.25669871262855	12.29002813136688	7.900063751765174	6.992859247255353	11.55103630110352	14.30237241475035	12.73236144304218	10.08783040034953	6.686371736772543	4.256953823822215	1.563786584257429	-1.90723545627182	-5.431067547750672	-8.280299349159009	-7.167887316830473	-4.749954383281079	-3.316078415550379	-4.459511635502452	-7.790625196757617	-10.19185177192185	-13.50634841112219	-16.41655799863699	-15.90217812747909	-20.82829369950349	-23.22545687565022	-21.67987871310669	-21.79810327371953	-22.86507583465263	-22.80086829063728	-24.46337099700813	-26.26600311355264	-26.67484932613027	-29.01561636222962	-36.84122626186667	-41.21800680602297	-41.13707937900978	-39.92200003629239	-42.09297445839417	-48.25143044328865	-49.22567077571938	-50.1223023918173	-51.63794885893378	-53.68968257608367	-53.74069177214562	-57.24750854149386	-57.0319070552456	-57.53603441953879	-59.41306795889415	-61.08719501521443	-64.17461671107799	-67.45048012214471	-75.06413859061513	-88.88970935767173	-99.20814843703891	-90.38149119186681	-86.91231433909905	-90.7592116197759	-104.7906222057648	-114.3523560565679	-117.5799835894061	-129.0108396885817	-138.2554368969164	-135.3186507500241	-138.9116672739932	-141.3791449457505	-142.0638956079044	-143.187553085078	-143.379128438141	-148.126152489721	-149.8507449645782	-151.0777014394214	-152.3548000054337	-151.8865467139711	-153.6648793513709	-154.378166160187	-155.7932249680206	-154.9815074691433	-154.0842574133849	-159.8613556428089	-162.7277534867281	-162.5577678064714	-161.6729238052524	-165.5129172690293	-176.7795984787604	-181.3058430959194	-175.5555624245079	-172.4091979107923	-178.3457683419182	-182.5324676881406	-183.3888291837447	-184.5107038238182	-177.6096358183181	-183.2587388227173	-186.2918709585901	-188.9527938125412	-190.2337937779863	-190.7545089606024	-197.3933991571077	-199.9113772141654	-199.5928849378177
21.15560163349767	22.92043551808544	23.09449170311564	26.03982662430857	27.02568366184443	28.32700099456568	34.97683880064827	32.71842781073352	32.27748807776666	32.00393390775406	32.51847800128468	35.29093052776761	35.24564029552701	37.00012681808829	38.23514748005033	39.13967831928278	42.02805586959002	44.04415507569291	46.70867595761769	47.89475506875317	56.28573292629031	62.93945171690811	56.25875123787739	61.06521912152544	71.55089071795888	72.2520947562038	65.89341549894999	64.58654994344141	70.28087847627518	71.83035139204932	67.36296358440771	68.74291727933368	71.95825461673556	69.45016826940659	71.29068219581401	73.60200578663967	75.83321868695936	77.59913272122827	78.31855656640937	74.59038991601011	75.6481999726029	77.70160293588665	80.33130669331936	83.87143615244244	86.59000814719244	84.41728125522653	81.19010031422761	82.6791007701564	82.8641721867541	83.89030383294272	83.90060311232406	84.74507335626251	85.97165397730862	86.66077186683455	87.94711476618994	84.79727714462712	83.1809049791523	86.61053332750046	85.82008589717057	87.66033499115656	86.32680209367865	87.13113129661855	87.55881645482194	86.20256658974196	85.06618994970256	83.79975692986181	81.9238233000209	80.72666679950737	81.11262204000192	82.70269644145026	85.04134476449039	82.30725070272553	83.93699985824446	84.87345964464882	83.71089242886492	81.95699637358723	82.03172364714101	82.58871354357206	84.01234051069196	83.30025602863793	84.12585682572509	83.13695370924086	77.01739569431138	74.40750985766238	74.7941793522626	75.72154127113814	77.45551561223564	75.87443800927883	72.85651361071436	71.52667331293114	74.25440927160076	74.90778944505442	74.59364807453025	72.30818752552247	70.23846634609495	68.15399504419008	66.40461873925673	64.23820696070638	62.42023738903092	60.79204200946958	61.73796610267391	62.86371734461008	63.85855253081544	62.63827778477182	60.98788122238651	59.09005287184564	56.43559926919576	54.33027625472764	54.88066633411989	53.06442711651502	50.85604300784772	50.64373375925021	50.25671685952091	48.87066091760417	48.41457792937126	45.44908829427519	44.64466904528965	42.46962472685419	39.62338026408921	37.35485506075682	37.29192404567581	38.5732630832311	38.77048184119116	36.15034617679567	34.46272543887503	33.65302131271642	32.88704281367427	32.61783619211735	32.08677449539016	30.98660213534359	29.75413379147946	28.95665182317822	29.80579089626511	28.00769652021592	27.98500856857154	26.84357911257723	24.49845883061428	23.69597585758535	20.44182681614819	19.34060940129024	21.12498835260027	19.43577777868489	17.16324520901827	12.55960722683525	8.984887933404679	4.497417345895428	-3.442589599769207	-4.626184802574926	-4.885360854640425	-7.452994305083422	-10.48554124960896	-11.73712796678598	-15.51672145709753	-19.80247806410145	-22.40441337717419	-25.19607991934416	-25.6877746782188	-23.59075325992742	-25.372965382925	-27.68252274107411	-30.44580001982592	-33.65069653937434	-36.073305018902	-37.02961837642169	-40.14855252190389	-42.9999518230621	-47.00664664196628	-48.93072094991288	-53.42719539954587	-60.56112967231834	-69.83882670400291	-72.89677803152469	-66.62086096000681	-67.60857334364323	-74.4260616998703	-76.66248303566547	-76.0239857732152	-76.42315219957837	-78.19922822287432	-81.94063978374629	-85.24043360680071	-87.03384324774163	-88.12070526243718	-87.836341937512	-88.44927352633533	-88.70851147411557
22.13563884577391	23.78065926540154	24.5246377699884	27.04406420057657	28.92268892413722	33.98081987431172	32.27254755146893	31.55155744060042	37.16897943834238	36.59830067854156	38.89943975484093	48.5235837104357	51.29193736495932	37.43516717246916	38.9691936602521	39.21349799453643	41.07975215323683	41.93279892111443	44.27569593146418	56.55423300919955	55.31918842481025	51.85508344291861	53.87013706725213	52.18158746046325	51.85500685505636	50.52817921456128	51.862750386659	53.07221572654834	53.75093418256546	55.59476178094266	55.97465982753783	57.11931890059432	63.94761791067145	73.76721785342946	60.55673772554206	61.55202806431492	60.65612843221862	61.52168475927368	62.1117794162769	62.37263522724774	62.81865707091151	63.23227875594841	65.3692490412682	65.54798945522856	66.17893940733578	66.91927495896385	66.49066689636777	67.26914980548139	68.84386973766951	69.26570569131351	70.52984988684574	70.63568673447941	70.91342837249616	71.75468090191291	71.37458960481189	74.0976638295985	86.48300710503659	89.26373295550593	87.9790876395835	77.34059088508383	76.52681969888482	76.16164000093013	77.36230441540258	77.65607370751513	77.62210858647168	78.90107091944029	78.99575924484441	79.89792411499934	79.48638483762653	79.40817377497055	80.26174543204974	80.40811875635779	80.25259537578631	80.99604325624631	80.64925678261369	81.62616001630886	82.33470724616794	82.02836923494212	82.46823510770241	83.81469667766768	83.61567509415323	87.58243332259937	86.55421130065039	91.80136490869239	98.63081208340975	98.02138338257438	96.91341451902019	99.10706440124463	100.020464869392	100.6081141078202	96.73465074117939	100.3227082790503	101.8411041587197	100.4411781603307	100.8617367312422	101.9577152487569	101.1582854545493	103.633173766564	104.3518145490197	101.6346707963433	97.42353996055513	99.55120956974579	99.1252955647038	99.81790367765043	102.7985148098759	103.287415279584	101.9681852951971	102.1487081306686	99.13822432989184	97.43872926568631	97.16359344233544	97.64034573950366	95.86616481556672	94.54359017442667	94.33803025399891	93.41003202165251	92.3492635015277	92.0956706395782	91.52213825363225	89.43752753777883	84.40445292714483	84.2829981427771	84.6990490529468	85.61570480948654	85.1013699421371	81.91134042359025	80.66679235447162	80.02093519086171	78.94077937165346	79.63266982972604	78.21537132324534	76.31033937335727	77.11665192535747	77.19875938318424	74.60512920601698	74.45851245106121	72.64929948365005	71.63843419194004	71.13303980879971	69.03338010978871	68.93556399277375	68.57994068845596	67.12835580971617	64.77254376839724	61.72425905009703	59.18170462534553	54.06365077896211	51.20242484182018	51.65801761020728	49.34538495340166	48.24182348734294	45.52983132117762	43.87758908343102	41.58592062014358	38.05262738940473	36.66490369845025	36.50988932190029	37.23240618514401	35.93361371461182	33.25463894981536	32.06107672105591	29.74089509559383	27.6737835258445	26.908100503452	24.83233138343479	23.12381951554579	21.96271591958063	18.45164739984887	16.18581871229196	11.82819764015187	10.90459430010964	10.85899502162195	8.401814288231691	7.033490924468055	5.828158401019607	3.973670492030124	4.773432745620966	3.407944788665247	0.1259953529172435	-2.761013783577027	-5.054497481137872	-5.019935047510444	-8.190199281795856	-10.81637092528487	-12.17336224416698	-12.80959460437163
22.84635095927132	25.06654661482389	24.66809897469042	27.49527176378112	28.14320237547543	29.75477707548626	31.3844560955196	31.1058109140921	33.11887128723907	34.04225461344768	34.98292556754586	37.19015038806694	36.57894470912098	37.85965822260488	39.52782247935758	40.09214430493603	42.60909622995479	43.10052048034444	44.05422878145336	45.65196700014528	46.34198895774477	47.49042197778184	48.26914023751274	48.808180096651	52.84832057217437	51.15431512904797	51.4743828991125	53.56976964378927	55.6743467584208	55.54478397656752	55.46475852755347	56.87811095672174	60.01804318190767	59.00179578296448	59.1884195326777	59.64038298869556	59.99144048991607	61.42269931347445	61.50128695470755	63.05060742438417	64.16601461043047	63.12728215621738	65.23016645313197	65.29111660496596	65.29391782188895	66.74630828599288	66.47216191709643	68.10633824668162	68.18237491802702	68.99945000678338	70.27170496224255	69.81733711710811	70.26521323033666	71.31242500602085	71.56055539628531	73.85638715057678	72.67109239326254	73.14839234542413	74.52500891118902	73.41181054808061	75.25904334078999	75.44440916338434	75.81709613729464	76.67282240681834	76.46913963311601	76.88352456393039	77.39993300747048	77.35140614474815	78.8164951173448	78.16300835355952	78.86085580702985	80.16449835002541	79.00360043647058	80.30543171043544	80.6926589404741	80.83499635514843	81.70963017235206	80.87581147726874	82.21382690381148	82.11120703185782	81.81695723276289	82.40372628977488	81.53952466853997	82.39488314469941	83.06403950967163	82.85088451946345	83.89446530368551	81.80577013963259	82.06682347738425	83.4012748400327	81.88285086024513	82.49522926285516	83.40110472285565	82.03697401371866	82.74116799771394	82.12881645701535	83.09445121014576	83.14970322460306	83.72859495373717	85.85589419593117	83.26886032366599	83.39252619634209	86.03954619595564	82.86380695720186	83.22693182332972	83.11580088954273	82.62767907624766	86.19933013962509	90.66086657878068	82.97968430795223	81.6846632148106	80.9299462095762	80.75811689474929	80.76650454722238	79.98963084593953	80.1403200413387	79.03883565275351	78.82741005733217	78.91107784857002	78.54696785851721	78.77668419397304	77.14810650265642	77.20313666848895	76.90059573761735	76.75028191154584	76.54707206693158	75.76975506320852	75.89386532571538	76.36619991171477	74.91557060805616	75.0653606933835	74.01029642583751	74.17524050193967	73.51294435933616	72.99168026585247	73.07483429820735	71.41267647170463	70.87360593881513	70.94239668208124	69.25571508632473	70.04890135527938	69.19111482322367	67.96499345894838	68.84207295093958	74.03571941289945	77.54076001894174	74.35182060241451	83.34456690989005	82.00778147597104	80.78197500644193	79.61969783660209	79.22873005228536	78.8773940590218	79.88656265366062	79.12394137081746	78.19686036680037	74.92545420955348	70.80433175464765	72.5537161042058	75.26549652978294	71.21819278534149	68.50728120118364	68.39063959713557	67.70467092858559	66.70965838734378	66.89030380499493	62.43110554526513	62.90535695160781	64.14385506105404	62.87660607513617	58.41843642056324	55.24568162586313	55.00304403507211	54.85041524479449	53.55588409487009	51.44190465099949	49.76614129622611	50.61640151037075	49.1907119338662	47.03952626709444	42.67869998562429	41.07339369121189	40.09902800725813	37.13306368608714	35.1139086270161	33.8376417708041
22.83554991735181	23.66358505290748	25.84962875177041	25.79787152044923	27.85525728470606	29.09608059817944	29.31056422990901	31.27505086233128	31.64634825599433	33.67386838185692	35.09292099103428	35.35078040915067	37.40867448484789	37.75238734572935	39.11692608402808	40.71261610624074	41.31667363905734	43.27232180970864	43.75077770406801	44.41763082685478	46.38884132395805	46.44720394557214	47.88217525676481	49.97672031566302	49.78080484710497	51.47594741284726	51.17983669394371	53.62826434320061	62.38866758404058	65.37832642683881	61.13281553434373	62.87875895637285	60.03127527240653	59.21685178207062	60.34687813004734	62.2502785679776	60.70721373845331	59.80516403195978	61.22237842237612	61.61893736758179	62.14064214361304	63.27485933901744	63.53623643646321	64.71010690442947	65.78147657052952	66.51452298754378	67.24728851729131	67.02226314526186	68.83890954815513	69.34667488192451	69.54694524187437	71.07667551327762	70.03456739674863	70.77414874990791	71.81248304122587	71.28342133606449	72.54715967087878	72.67161913983094	72.26481443715346	74.37641331382017	74.15694976176715	74.83503752326243	75.10676906126295	75.41301138973762	77.42460396537427	76.10727861709663	76.35244019852178	77.68297005106012	76.5548141365669	78.1996607566949	78.03241352025344	78.07496351408099	79.00942356872019	78.54032110821632	79.71852742984484	79.84357069853405	79.71679042082866	80.91430458800122	80.45404413892228	80.28078130076767	81.15490980844743	80.61023285743667	81.43858804769857	80.67969762071289	81.05384004852326	81.43467533949379	81.08829222393857	81.9472792460345	81.3875452948331	81.43003136705076	81.95280132530851	81.35510746295739	81.8232790857227	81.0554212455765	80.81469221862065	81.60301231400638	81.29644691208154	82.00213730787837	82.31370111137551	81.24215379364875	81.82988550427038	81.40393848450788	81.9399117546038	88.01821054313382	99.21570680427135	82.57464722433062	81.03395911613057	80.19362155648494	80.61841495137938	79.39081559777981	80.04630893633569	80.20016135002734	79.0727327385265	79.8415276279018	79.05429351166404	78.87397206365961	79.65703828339295	77.95420554633102	78.78846396467793	77.91228965170069	77.34550157880798	77.35419612573156	76.04389062496284	75.63974950123441	75.8903160630116	74.48569000072482	75.47331007515052	74.53064567471978	74.07532487834877	74.27001912266877	72.65498806582508	73.42152389557097	72.35758362585833	71.41306048444204	71.506887269603	70.76701292678899	70.5699846446733	69.43316381390133	67.60826206438728	68.32165649878269	66.91983534391977	66.53457577742469	65.96759182557415	65.86405545134724	67.89248202202273	66.54152769173101	66.34125773458436	67.70816883415526	68.39578401366165	63.41612123982335	61.60886050858269	60.55740683433916	59.84569633588532	58.73856676683789	57.94388121622345	58.52946538888693	58.36858330740633	58.81986829272731	56.11050357750509	56.24806908022843	54.82921872317064	53.192690258312	51.47019641342854	50.30139685015189	49.96582260791006	49.26931860404009	46.84976390128327	46.3216540869948	46.46917913829238	44.19750126291338	43.54011023858068	43.22965105944648	41.6460496146514	40.86101076453964	38.65449553155712	38.83342165564584	37.50454362935837	35.84672616141373	35.66002837608086	34.50925367928734	33.06235099954048	32.2083245551804	30.44817669679682	29.65473070507883	28.08338692859969	27.28765536389002
22.53130986683519	24.76936042650749	24.77068761530697	26.98776799032308	28.02802389436258	28.51643379926398	31.19196523533469	34.96819088925929	33.51804710540438	34.52766218051337	34.57621513871396	36.9253431355605	38.13911120302268	38.26204166104196	39.52502319028034	40.26741831581151	42.19993915324667	43.62655625896801	44.28457638416401	45.33861585012491	45.60563014447496	46.65256392344051	48.29491442838398	48.01584994254227	50.3589578495172	51.34517475111355	51.18905797289867	52.8718554372696	53.21434030189951	55.12146425045563	55.60121414282554	63.50058907795051	62.5191418436242	57.28429156635872	57.1382833081953	59.22249598925967	58.92742138636726	61.09654186667439	61.00138043377345	61.52200411757687	62.96704546992049	62.93541183372969	63.99969528518506	64.26907419047717	64.47522169747594	66.1074507615877	65.99613474909668	67.35033866807746	68.28281743302637	68.22301598723269	69.39463285974949	69.26546295667703	70.42411797047976	71.79515072453913	71.03077439819987	71.5989157616624	71.95166012293703	72.32556658258278	73.2133406131085	73.17639162113943	73.77270732903804	74.50984164927442	73.94438091007009	75.24263754621316	80.55399110266458	94.91830801944099	88.10427051319451	78.76833882611115	77.23261664450595	76.94790449920129	77.70020681838352	78.8443946228704	78.24176465342333	78.92278127939471	79.05574189131653	79.0306162415402	80.35962172018995	79.86064712397598	80.21491792255125	80.54501180742363	79.48794520100515	79.84059814724421	80.0650459813296	80.28779298066507	81.21459158165095	79.7753211571939	80.62857446164443	81.14591605621078	80.37021981615104	81.31597940712987	80.66687190908763	80.40749625992672	81.99922001855037	80.95525073628912	81.79290973270332	81.56586526792668	81.69789779415078	82.07253456274756	80.8997968908202	81.49247413391865	81.23500524139371	80.96847046292407	81.72125416459576	80.37260080707665	80.3002734597776	81.02302109084835	80.35649906020166	80.76307416787651	80.10968440737105	79.57174985488763	79.02638724732506	78.11953608878031	78.96376252583963	78.37811739991821	77.55907840088776	78.53985765825598	77.71418579399119	77.9377550610086	79.08875975551837	76.45349003849955	77.00780254286678	75.97925970602549	75.93696598784325	76.24694596322092	74.61071077945164	75.35487895536767	74.34508218953741	73.61070112478316	73.74080349429479	71.99194404193227	72.18921376034467	71.48656210682398	69.90056452260828	70.27679872864391	68.83542974116293	68.89859218594773	68.48009079582664	67.69123137065228	78.27884072805419	75.79459363102973	70.8935581109308	66.33222130062512	64.90225331148926	65.43800324671852	64.99990264449033	63.3181540719772	63.94029621923713	62.10788645492619	61.6653036387074	60.97395505444302	59.47771337903595	60.91778894962852	62.6563595556007	57.83584811431786	56.93542999758614	55.05495981910695	55.15278106655927	54.12983908902791	52.80220053104713	52.94723055455046	55.00355656949131	51.48948269732551	50.54789194925999	48.86366939813502	49.30361490275352	46.89249483098652	46.62250955696859	46.2392167617725	44.82011450981109	44.36827291386913	42.93052308446084	41.52491549012109	40.58994414281433	39.04754133653732	38.51106533450202	36.48986155199404	35.56711386552381	35.82674443219427	34.26812408400131	33.73902567991119	31.96765775142286	29.99333588872386	28.76474657044959	27.35473375339546	26.40416360989364	25.71686698606629
