0	0	0	0	0	0	0	0	0	0	0	0	0	0	0	0	0	0	0	0	0	0	0	0	0	0	0	0	0	0	0	0	0	0	0	0	0	0	0	0	0	0	0	-42.37859180226168	-120.3368223402408	-198.9612302719079	-230.1566335811927	-230.4456567954425	-229.7253623568749	-228.871580691313	-227.6676067655659	-226.9066398444474	-226.3460986492931	-225.2832410916553	-224.8168916046311	-224.1761950865705	-223.3578343741461	-222.9364553957327	-222.4433331906506	-249.8801493204827	-264.2771145833835	-266.1734799746365	-247.9194562919122	-218.4934129737557	-179.0775748760099	-126.9538156808543	-92.10932002970024	-79.36802007331008	-76.00456731407073	-110.0972804582667	-178.7613598117749	-214.1578776092932	-215.1586440737382	-244.4474113086711	-225.6008182294708	-211.6998307830693	-211.3722870300186	-210.713019227265	-210.2667061860459	-210.061764642426	-209.7669525676274	-209.5351262706879	-208.9980583892691	-208.5819288187469	-207.763205293546	-207.4871252131853	-207.0699379162566	-206.7023862228841	-206.3771954960659	-205.8269353761797	-205.5616649319081	-205.2498397656979	-205.2046605694098	-204.9416036138629	-204.0099852752948	-204.0075369836015	-204.0128313981075	-203.9798817853919	-203.8631342143983	-203.5428462035676	-203.4249611733386	-203.539536655041	-203.167166186997	-203.1603459223469	-205.3712298644783	-171.5957796936526	-46.65561881010601	-34.43777811051673	-13.24832056906286	27.93850076654402	74.36364800082256	86.09975421305953	82.43372595262991	91.82313537305066	105.0762207193138	104.5756683686345	123.1824395360533	133.0133071098524	97.66329733844404	91.54142165259107	94.64244460055197	109.5210918211756	121.8139794078651	120.3710527511477	122.028094086435	120.7605152516363	115.7673191283785	124.0175036305256	135.6437840331849	128.1409694956645	111.725672574549	94.96347152450703	93.75089185793999	98.62732299493393	101.8526415793831	89.04340064713941	84.99203888772541	71.30353833106957	75.77832892149358	83.25508889457595	81.7696786975464	97.46499007974579	120.4432079631902	124.9611409930911	121.0388887017829	129.2744568094926	148.9547278286249	169.6356604532859	175.4876816217721	167.6981016177088	184.3872085389173	196.8892107929924	196.5960739919544	189.520245598692	174.872741724845	165.6797114757065	159.9094516012441	156.5175596012889	158.3534891494683	131.8978843626501	106.7110607639263	110.6228536610021	113.0064202330339	129.79957711663	127.3567724488289	124.9454500124052	115.2284625075356	120.7780362288032	127.8490083922047	125.3110020738498	126.6082964468694	128.2046338444774	141.8408144595989	149.2624870194018	144.3983473860346	141.6625433297223	164.4955975488899	154.3439938681474	114.9067058569078	109.6576315517977	106.2816061277222	83.00670673892857
0	0	0	0	0	0	0	0	0	0	0	0	0	0	0	0	0	0	0	0	0	0	0	0	0	0	0	0	0	0	0	0	0	0	0	0	0	0	0	0	0	0	0	-54.31023312977234	-132.6378584943614	-210.5370313140971	-234.8290434532803	-234.3499393933245	-233.4190455514334	-232.6106595390103	-231.6116266123909	-231.1858266405982	-230.5409630185444	-229.5990127446416	-229.0743857847784	-228.3032655837084	-227.2437562796744	-226.5661783209888	-226.0516256076415	-235.549777294372	-249.5686189039217	-244.409283263497	-233.8560736092844	-195.0670077154698	-121.9994101348489	-86.21219683200968	-70.77950932054304	-45.44208442059755	-51.79920903328536	-89.73544498549367	-142.710385797936	-204.2143163239898	-215.2000648256346	-217.1801576341128	-216.8623747835694	-215.5304718215039	-215.2552079647382	-214.7252276218414	-213.7805717819591	-213.4973308964567	-213.2922074362705	-213.0128193963235	-212.5383926839409	-211.680292167225	-211.1284270480782	-210.808479824608	-210.5130418212596	-210.5459699418615	-210.5023953608864	-209.9902821393524	-209.6580289893731	-209.6268442881876	-209.580084193618	-209.4550560974165	-208.5090192652227	-208.8362865521227	-208.8493759403783	-208.2512753251984	-208.28974503004	-207.7385121830802	-207.8624728205681	-207.4620484904864	-207.249923878066	-207.68711502242	-148.0808866833621	-73.05556231540305	-51.66372607030478	-8.491412766892495	30.26824075182236	59.32180366606145	80.32345402368209	80.91744468869676	84.40436386903072	85.33594569902986	93.25271652944046	95.69727106342965	115.2626353064707	125.3681097558027	88.80402397056879	79.57227798758888	104.6727978835994	133.6848555528183	128.7280732519081	112.8977426480654	112.5724489864611	109.6237019969199	109.4021557899178	120.5791361704327	130.7721170972782	122.5593908655946	110.3088176256109	110.9281300414261	97.97406559398441	90.29835101962463	80.7042048291885	75.93268985508574	75.33342420176565	63.92515263920904	69.41689191644971	74.50215906495906	72.9807341302796	89.73793192850155	117.4410384196374	119.8865434239423	113.3544457241032	116.0706754102878	139.476397076845	162.2959239506405	170.0321391588679	162.7533735981115	171.5322016831836	187.526746797922	181.8767245641054	174.4873011908992	180.06610595321	178.226586729833	158.0999407847819	153.8484118941555	145.717272689825	122.7367514979017	98.32606942037478	104.7792506654765	110.3850972144775	120.8726050721608	121.1453846863689	120.4031201704588	112.9644741745307	124.7289790143249	132.5056699849073	125.0611365200553	136.7958578644894	130.9601420765506	144.6183002550421	137.1800530659296	130.8342483943031	138.0169745383467	153.110538328731	149.6199217910529	144.147924608472	116.6884486889165	117.1855173351174	110.020039921701
0	0	0	0	0	0	0	0	0	0	0	0	0	0	0	0	0	0	0	0	0	0	0	0	0	0	0	0	0	0	0	0	0	0	0	0	0	0	0	0	0	0	0	-40.57784918159708	-118.2818873880834	-190.7316743548968	-225.5581376473731	-238.5619118567942	-237.6946643524805	-236.6708585945586	-235.7968904952482	-235.0509746807397	-234.5465661407093	-233.7995709839405	-232.8723364661093	-232.4598512881009	-231.5700746248423	-230.8913193489671	-230.3478924770959	-237.1032941823223	-271.7571205853424	-250.2270050803631	-203.9092286067939	-153.5872438048216	-93.74940445980096	-78.73033451543654	-55.66487336266123	-49.59007010129532	-60.43655481263967	-71.2898849137469	-91.52063919952981	-155.0440809981844	-174.951211461814	-187.4037753419957	-217.4802388497461	-221.0423971068048	-220.3857052244999	-217.0713821209283	-217.9910613853259	-219.0470161794496	-219.2692074532187	-218.8135433652203	-216.5319444982052	-217.8315990304031	-217.9994893101365	-217.2181778964019	-216.8106022904788	-216.2423790414833	-215.8593439181942	-215.8214129476695	-215.8975393306968	-215.8998646081146	-215.3427430254339	-214.7733494184873	-215.0279439229497	-214.7536619398013	-214.6026106452511	-214.3250541818227	-214.1362805996233	-213.358826729128	-213.0439784067406	-213.328702758805	-213.7149984126474	-216.3439371829118	-73.39444904354065	-36.18325250177411	-16.357460733976	-2.204047008539464	28.5961263755177	53.68671850027074	78.05429441591689	99.13138304685437	86.15585377835832	75.24256048665929	86.70304560372647	87.34196213979972	103.4467919245373	115.3133120684595	84.88693594774587	71.62340517904008	111.246266941931	142.6837074485858	142.9092832161499	107.7492720542258	98.81938692474773	98.26640430791852	96.7210779065162	101.7498839499169	109.0716689183521	107.4929349239188	98.18945035979095	102.1193510505995	93.26797035846631	83.73822324635653	71.23928235273401	66.47960603076238	57.23537627341224	63.98330445607876	61.49800871581899	65.61754622643933	54.90635568934434	87.62477859061738	102.5792354580325	113.4018209400852	124.710654841252	136.4705586296237	132.645414690471	156.1060358412105	160.544208400716	164.7665350122345	160.4065383663351	165.2097127312678	166.7807421630974	162.2923081611767	160.5693650656587	162.2944585094507	152.7980250749182	146.4796158278856	135.5187603212504	115.4757259524759	85.57750546568894	97.50535379945156	107.3052234815691	118.0239809052458	130.5363374353963	113.4511820457866	118.2557111737263	148.1070209351612	170.553754569189	155.0974648194151	149.8465074944269	142.9671217893401	137.4732796354618	141.4438834040566	124.6510984814904	121.9123736178165	131.3913980441452	144.7952752995986	166.8940328897691	153.7200982685734	122.2211167784306	94.83682976001057
0	0	0	0	0	0	0	0	0	0	0	0	0	0	0	0	0	0	0	0	0	0	0	0	0	0	0	0	0	0	0	0	0	0	0	0	0	0	0	0	0	0	0	-10.60425875413945	-86.83468910777172	-166.3150531659389	-220.9962612039546	-240.1210741884635	-240.1361198124591	-239.2380487897149	-238.4394867372119	-237.9190787596688	-236.8808197879026	-236.3456905996074	-235.9068377036191	-234.8290173325612	-233.7042660659791	-232.5227257924829	-232.3552296004704	-233.4758421762182	-256.8266812102739	-249.7178695689655	-214.001478252487	-149.1282247367794	-100.0093671041724	-78.37898969994275	-55.98253728788907	-54.47645452125474	-42.31461746394422	-36.31347601835804	-66.52264508477703	-108.2372232162842	-172.3620083729085	-217.5902895340927	-223.3283667702563	-224.1707793095715	-223.6497384131564	-222.9124653045305	-221.5174511771777	-221.6666062219419	-221.6778929620555	-220.7572480101754	-219.3372691871504	-220.8295655966095	-220.6829698847742	-220.3924792435833	-219.8051528786058	-219.9358115448424	-219.6373629701626	-219.2634363303048	-219.1778672293684	-219.2762406147344	-219.1474046155917	-218.8673086358989	-218.643017480839	-218.2939488104525	-218.070954578724	-217.8787915858809	-217.7017440666145	-216.9180202788248	-216.4543019617555	-216.4734310050242	-216.5084492302061	-183.6807009201153	-43.27951436037939	-22.81784856446462	-1.084960702439681	22.05620380183202	33.9222308496914	63.94667230184771	75.1646385807274	70.46738880752289	87.52793503381315	102.123572488054	81.82193435418293	80.7572971005691	84.84826090084165	92.81094422051191	88.46545605666591	101.4834147678485	108.7844277600388	106.8808475936562	87.44373811778469	77.64988774919748	79.58581297162199	106.5347578702224	124.40785052727	91.13028023013167	92.7551495070431	91.51342791611575	87.43314682144621	94.40117176199247	89.26550506761808	74.29290465603736	67.65647056716008	67.06593422880326	81.27275510015991	77.95362515000483	53.11351027645529	58.80443475320313	62.3545438366671	79.27052372048611	100.2103412972015	108.8849178276724	108.6417483775974	121.5822310392521	122.8020610517076	135.4919867187153	140.0415253998925	139.5945104866746	150.4409293067273	161.0317131145695	163.0578213282496	159.8363520583639	158.813950120737	162.1456377952656	159.209632813263	154.173888643201	144.6163424641279	123.4198247067427	86.06313661660398	93.44478724298679	103.8595701992837	114.0393014530782	120.1736586513084	119.4649480222922	144.4372074801592	185.8292238302083	184.5080148546712	154.3887783431772	143.5019375169191	140.9161689668479	152.8003470843975	165.171934775072	143.6400500383622	142.4230234155299	133.1303686017452	120.9055889347075	127.8262279818534	126.3043469377984	113.4477365912283	114.7038256866377
0	0	0	0	0	0	0	0	0	0	0	0	0	0	0	0	0	0	0	0	0	0	0	0	0	0	0	0	0	0	0	0	0	0	0	0	0	0	0	0	0	0	0	-50.23329653540907	-127.5794970486262	-207.792111404397	-242.7722535691555	-244.5852929007526	-244.2462781545282	-243.4444354766594	-242.5348169547674	-242.0723463656477	-241.2237339021816	-240.4581328808131	-239.7024308281507	-238.6632796375023	-237.6771712896144	-236.8603606497331	-236.5345310396218	-236.0275122255208	-234.1441175136519	-143.2446650177669	-72.00408982620763	-36.64258247437598	-9.878896509082947	10.12120820533099	-8.889745534391263	-45.78690406131994	-25.84767136306251	-9.366158362364409	-12.15066558827765	-60.85875201824631	-131.0528546685838	-201.6968621434671	-227.2984095229226	-227.6475761243738	-227.3124711679792	-226.827565554415	-226.3429587009459	-226.305283379067	-225.7759750531109	-225.1681702595255	-224.4442374256033	-224.3479474146202	-224.102288066632	-223.7177652143756	-223.3063723984472	-223.3894452642025	-222.9903163637055	-222.8450506030654	-221.4645514280581	-221.503090503552	-222.155192985342	-222.1926057825678	-221.9344702442019	-221.6099359536123	-221.5275524594422	-221.3318393183053	-221.2993098106774	-220.7697224474182	-220.5988860983959	-220.3757748797893	-216.7094044992743	-167.8683454899982	-22.92855140077037	1.741737444854125	26.15243444809267	28.15749617413807	47.66409457036281	68.09121977401773	72.75456741284241	74.28248044902175	69.09714922438521	59.60005473237565	61.6135354170914	66.55772017043795	64.95008260510301	74.80626125693571	94.5400206382953	98.46664366178794	99.29171813625041	71.18159108392864	68.59377267602807	70.13149967796488	67.46269663948036	73.01139860935012	76.93877761814284	87.685459506396	85.04047947927515	82.33190927506031	78.68778997401071	92.15532504058154	85.38869211750516	68.24346803283602	63.11788808405616	61.03461592593551	66.71368890877481	63.25990785064513	52.0380186647897	67.39192354437883	80.44308037309109	85.68763486104135	102.0692012438167	104.7331180810079	99.59895967333637	112.0617545530027	119.2365885747215	133.8101915182793	133.2629507381696	136.4777206503729	151.7392189368396	151.9122936575743	157.8390021537478	157.3127021505186	157.1299619013357	158.4724459904881	157.0097888978512	149.9583718217867	150.299437657878	116.1190373640721	83.117120015697	84.852007048483	95.75923817995341	107.6601500938419	119.3395804886123	132.8107599572148	167.1393248402082	187.3066666666714	175.7210857099143	143.9439233304102	132.0091551573104	126.3610702306427	147.8338835720219	161.5289026094714	131.5722228433589	124.2762158472412	120.1702030376454	107.5688451766892	111.9556492361025	114.4423789321467	108.3400248099345	115.242854720018
0	0	0	0	0	0	0	0	0	0	0	0	0	0	0	0	0	0	0	0	0	0	0	0	0	0	0	0	0	0	0	0	0	0	0	0	0	0	0	0	0	0	0	-44.71749878697477	-122.6643019285926	-202.6505556468796	-240.3723258485954	-241.0800728968498	-240.6644457032988	-240.0102760936258	-238.6872058509984	-238.3254710486411	-237.8710719421734	-237.298605107883	-236.2751921683261	-235.2149167856729	-234.1160151420682	-233.8413973269971	-233.1062331980485	-232.7661137417088	-232.5012988002547	-231.3689995683659	-189.3136699620634	-127.1730570852719	-94.84726369393083	-50.43767113932761	-36.82352892058536	-35.26023777976162	-15.85490914949558	-3.636198431697617	-18.93894082942226	-78.41910994645832	-149.1905130792391	-214.424861994937	-225.0767837659695	-224.7324483013641	-224.704838067804	-224.4063912471759	-224.1734723510367	-223.718373043231	-223.0588737934974	-222.7483939457551	-222.3401243467237	-222.0668341118734	-221.6547223865061	-221.4251256576137	-219.6706474907125	-214.7073976591866	-219.5744011386713	-217.3859744704552	-215.3035056928055	-216.1531112422681	-218.791831219973	-219.8865523456402	-220.0708617080006	-219.9071770864336	-219.7378896172016	-219.1605849977751	-219.3584796757159	-219.1194231796402	-218.9418037363898	-219.0964533543073	-217.8555227227897	-117.666442387044	-20.91084088200443	4.133388675502016	44.74906631805079	75.94564696699985	66.06932338290353	69.82273195282242	72.27732002780616	70.14100754900215	56.84035070382529	58.17507491481813	66.46882551123437	65.96587114710172	57.16619637853088	63.29439109689281	100.2353144193472	100.4295666556202	96.95081359647172	78.40882941076637	84.95100321573572	81.08186578464678	65.46422529999204	74.79614571727332	74.23637119199371	77.27533660149028	83.86003996031904	79.59217969715237	66.21213267596373	85.92608143118987	94.27874147562841	77.56477821820309	63.32709233879944	60.62211629694732	46.34909207229929	40.89577385016142	54.97776715150984	75.8245964212405	78.72132571926107	88.91473691035621	128.2727682661875	130.4488612730083	140.5220723791587	133.8168595529094	110.447713841651	116.6325992581268	119.2776565204363	136.2008061116781	152.6180350684228	160.1597668012941	160.4978738602952	148.1682471452741	153.7054995896535	167.1599346731137	167.6739956903576	159.8793215909508	146.3618961269735	140.4586145725808	128.0774838188728	85.27838642988155	102.0504289433765	115.6385980500521	124.6565329158419	118.2021494886942	124.2817730624101	149.1958632870088	159.3148819870131	152.0353673093788	158.419082503007	138.5564885473195	141.8293629008524	155.8732178949369	127.6932448971605	121.6290548736038	102.3805280948802	107.9731882095987	105.1483493806048	105.7272463416132	103.2776207472352	108.2417486033105
0	0	0	0	0	0	0	0	0	0	0	0	0	0	0	0	0	0	0	0	0	0	0	0	0	0	0	0	0	0	0	0	0	0	0	0	0	0	0	0	0	0	0	-42.15098824531302	-120.1089547215937	-199.9134061664775	-239.445479404752	-241.2776405256083	-240.4914055271982	-239.5751893902201	-238.5387672228709	-237.5627213651101	-237.2383161703466	-236.3689864989158	-235.3104277131862	-234.7376973722809	-234.0849315821029	-233.5253520780169	-232.3914397694806	-231.8795018933796	-231.4849042325855	-230.6704204768484	-142.1783316485299	-90.33656697958652	-76.5966744547279	-46.78076090976928	-35.25774066082531	-28.6397826349266	-13.93876060025539	-3.280920828060061	-20.89430993824564	-71.08431838298904	-141.8944310456935	-209.805457469399	-224.0223900421105	-223.8895975598527	-224.2740220692394	-223.4064757050649	-222.95788685601	-222.6710760568101	-218.0201489438094	-215.5962897799355	-214.1824805494042	-214.2856350927568	-216.8557723863195	-217.7970583610936	-219.0404022287943	-218.5635705144115	-218.5143938640335	-215.3905851498833	-213.5340517825366	-212.6015399854027	-217.4289521554603	-219.6363748413823	-220.8048765820347	-221.360853673975	-220.1574302462556	-219.3151377876081	-219.5407218083511	-219.3625238358275	-219.2343252915452	-219.6555045118641	-220.2998174459958	-222.921034116013	-210.3636721481772	-40.48524345675703	70.02553037702997	70.15792385311693	78.55508570324328	85.68269110095365	74.65518553892642	62.65074090663513	54.58396886119031	53.36744552243244	65.73814285110748	65.02778260025201	57.68347475803368	63.9552801054739	96.81096093026392	95.70245211132841	84.6824263789852	80.32866536464894	78.18119554424645	72.44255958282083	59.54394477546219	64.12536778721956	71.16863103830916	81.92609856501021	95.13860303360285	79.10493200593694	73.44045822156583	88.45781262738292	83.42841626532004	94.07620168693418	98.44457579924915	82.31487076297478	65.22075717420677	56.57246712119904	56.89121322671736	71.77242750012178	70.41794408324841	72.68427449206159	91.44170117486284	110.408677932293	146.7870592434795	143.4893476351529	116.9396057893604	114.3550331421267	114.7290096286052	137.4094980577531	149.121152665785	160.4417492070045	154.6726904557257	139.1800592177937	154.168125512965	173.6376375820948	168.664456394009	157.4777817718071	138.6708459534987	139.362263975038	152.5964156784478	138.2188922478737	104.9729699169809	139.2234000425931	136.3839774213513	132.3368283156121	137.3395999855876	143.3402149134088	147.7535534695245	158.7523798146854	175.7377221561159	164.892013406191	128.1205414695318	129.6108376759164	118.7070136939175	116.0946984539603	103.1324967934214	101.3493174770243	101.4296943479278	116.5094459626113	120.4720281567696	110.2790571671006
0	0	0	0	0	0	0	0	0	0	0	0	0	0	0	0	0	0	0	0	0	0	0	0	0	0	0	0	0	0	0	0	0	0	0	0	0	0	0	0	0	0	0	-71.64094656819094	-150.8627037659562	-223.765063426592	-237.352099338978	-237.7269850640908	-235.6312883359731	-236.5180536326863	-235.8127808099691	-234.5608150471135	-234.0402706388825	-233.6602730504349	-232.8971165988094	-231.9778817163444	-231.0432840128756	-230.5623448890582	-229.4790413976778	-228.7118705702508	-227.4251340248562	-228.8766389125627	-234.9255159515845	-99.36724455541378	-62.04262846079737	-51.28119392931509	-29.08075454944005	-1.969628558465835	-5.819005065847895	-21.66387279855729	-34.92031133012121	-94.54262129880648	-166.9609912554274	-219.8523280877409	-222.1902175317412	-221.4985098740518	-221.3932940668975	-220.1707472597006	-220.0014755818778	-219.868983392566	-219.8169718729741	-219.3859753650613	-219.7822911328926	-219.9582899271635	-219.6923532220869	-219.2862302332648	-218.7121045155831	-217.5143418976865	-217.3933650636318	-213.8963950875546	-210.9802342076794	-209.2017419538429	-214.4498333222854	-218.7433496127101	-232.7320184903071	-222.4735753916996	-218.802056894303	-217.6660652814671	-217.8084549401056	-217.6027768176825	-218.1254192877387	-216.0978673847072	-213.7413206486467	-220.4744967621136	-207.2361146680049	24.80475407287503	47.75690908902497	64.94242597155149	79.12730905874051	86.08448733997875	71.25337614367554	62.68671881721686	55.24144037866812	49.56521029780273	55.6818736260472	61.03232392192634	60.77557632507915	68.17692251574552	74.20008054173961	84.64677350926766	71.19437467052279	78.68111856643613	98.37268441500646	87.89049204956481	54.24798520973651	47.13876508223181	50.1272685961484	57.41444060506061	78.97026301682155	84.21180911077873	101.7074780897412	111.3558471408722	94.56676223353641	95.08320557727443	98.35970649265325	75.6412108640037	60.79015345146328	56.86687977392864	56.81540399087046	70.27562950826801	63.9118420434971	77.78673929494892	91.55773118980628	127.2143527133381	150.496534897485	143.6204582317461	111.8247447488043	113.1505689675543	115.006120866637	129.229468523783	137.4855726691919	160.9193529917442	150.9638921667377	142.5008374675492	158.2695213674288	178.6672990989495	172.0288215322136	154.7119355519107	138.1717547354433	141.5238181288697	150.0382382617128	140.032812334409	116.3562296822862	118.2004815428919	145.1634974840686	157.1203214837416	132.479226181949	144.0453760228608	156.1530503729354	170.2025634958935	179.6518201065731	166.0791478344937	115.0123604087993	108.7999025517796	113.6423789463162	109.8625634915112	103.1580251081303	101.6845211955218	96.28245521823456	92.41972626150856	95.90003913278748	102.3436414120053
0	0	0	0	0	0	0	0	0	0	0	0	0	0	0	0	0	0	0	0	0	0	0	0	0	0	0	0	0	0	0	0	0	0	0	0	0	0	0	0	0	0	0	-52.0684601277087	-130.5392348837487	-210.2572182207587	-238.655416268168	-237.6531388632166	-235.8002265840389	-236.6606245911449	-236.0477363059949	-235.3879212085687	-234.8758440198687	-234.0240936853505	-233.1616281637801	-232.4180095109102	-231.4641048683891	-230.3535639430078	-229.5601052268356	-228.9107663694868	-226.6339094293569	-227.6607659707904	-212.3693544467494	-84.74757352224286	-74.88089128372455	-59.53077317670999	-23.24534327685593	-0.9505117925021801	-7.745900953740611	-35.97883423287897	-61.24456158713376	-124.3653103272771	-196.4943181845763	-222.5077579613848	-222.3726717829831	-222.3686176384804	-221.6348761298116	-221.4654092328372	-220.8275697746217	-220.4472221617123	-219.897105975022	-219.2145089168866	-219.1999108179213	-218.0477446991102	-217.76142454361	-218.0499722823335	-218.5538136358313	-222.1440572179514	-219.9320244691781	-213.2090509071874	-209.9887139080125	-208.9673253001922	-215.2619533865986	-240.4126625484532	-266.789696094994	-232.7718717467362	-223.6437180358776	-217.7152081065352	-217.3079961133119	-217.3286948607896	-223.5197824438434	-245.1773882397044	-196.4929341628416	-97.58838186980431	-25.50656158010448	2.398594073028177	44.61739581557815	71.99779711650135	78.53687068272693	82.14243686656478	63.775384776476	59.40520301783734	60.66192518270469	55.20143051093506	57.95145495934621	53.31726076833544	65.7022210169995	68.14018864205408	66.21970787002471	56.58101102022189	45.93106291685785	75.83840518897168	100.2135123720649	88.7384780481057	51.22547578611603	48.34894306878542	50.55136573079177	56.3931630692421	73.98415021606009	81.4557426604369	109.5857838180061	111.7796041303831	87.08920485967562	82.38620905810802	90.4643150667043	68.9328005373934	62.7971336589629	63.63012621497091	61.14368804190698	81.86017629092697	71.99691898436592	80.4981437301188	84.97521840371461	151.9406026690663	156.2116774852569	139.7692598596441	109.1471788486686	98.86281331924388	106.4842838406251	116.5914498700611	127.4769149730682	136.6115718534919	139.2567015137666	141.4678908442359	154.9467165824479	179.4123996766773	172.2707310041756	157.9680941201053	135.8276735762877	141.2099546565486	149.3630990904289	146.4365404139873	139.8905270735303	115.4791824866039	126.1598096999029	138.6339435959416	134.5528953262414	147.2356703341991	159.9392365239811	173.3599150941623	182.1354700244192	170.8171305991531	119.5159132674687	107.929010327939	114.1367250891552	122.0869647861013	104.246514915095	101.1462363814533	100.0547066324628	108.7051167753987	143.5500381247657	136.3123053238767
0	0	0	0	0	0	0	0	0	0	0	0	0	0	0	0	0	0	0	0	0	0	0	0	0	0	0	0	0	0	0	0	0	0	0	0	0	0	0	0	0	0	0	-43.90810608954985	-121.2702161543084	-201.5405908625205	-234.9511855385937	-236.3499908214994	-235.1082142806706	-234.5932836057674	-233.8578551912438	-232.7126447016553	-231.9983484969127	-231.2167517675596	-230.2025121527841	-229.25565358753	-228.2396417478176	-227.6600550120983	-227.7740343084393	-226.9406183652974	-225.0527671540693	-225.096422724166	-225.5717262680481	-155.1084399368217	-86.11375157856263	-55.78622699264054	-44.48476277138903	-10.26178468631847	-12.94427354656347	-53.55002191788085	-107.5958684195309	-176.5928713613327	-220.1880397521516	-220.2407826420069	-219.9159961261467	-219.6344337661932	-218.2915483553196	-216.9537397220874	-217.4514639458673	-215.5402534360757	-216.3255071359436	-216.8657178662083	-216.7273851462955	-216.1853859080152	-216.0962597457761	-215.9313059630273	-217.1538738199088	-237.2028482356686	-214.0945868082094	-205.9609909931699	-207.6595431157695	-207.0506052288606	-213.8550251559703	-248.0990055483173	-269.629818404709	-245.4075090884153	-221.9088633549085	-215.1941527481333	-214.6898198546393	-217.8652959291922	-237.6759446575021	-252.5226780750122	-54.94569065986034	-44.38249102931196	-13.4717895586087	31.518117839587	65.99660288236747	77.78462630322301	82.41776681801791	84.5491463813524	86.62929049843871	71.4219872969729	63.54610986074147	60.12478085397013	60.57082531271397	61.79440342270014	69.35133836594333	63.11273623706448	50.67869548747661	41.88193149431343	36.23464486666298	64.07971857270471	95.13059027523066	71.93515022413571	52.25220496832033	54.4835327915004	61.33952705296022	67.20589474989013	67.35803483856439	78.27512708570123	89.2122436101334	103.2106139989289	73.25140755456081	76.70864909492343	66.84665256522086	61.63210240372587	84.78849401640829	98.85000762606188	82.50500421930688	69.64834167861608	70.00590582490301	85.20384778852834	91.6348351323753	98.64400024384787	113.2056063909918	109.514028995749	111.8679696640183	105.135471975365	108.5556934100882	113.4084785704226	121.7057299982272	141.819523271873	141.9734672931885	140.3504801940757	150.0036219008163	171.057543940966	187.0708700556999	175.3796613507727	151.9219478995745	149.3143028368297	159.1572624948179	176.9536975629197	143.5521991144807	113.5324728430639	122.6501436980224	119.1021021244079	123.0931543765615	132.4529477812459	147.4179110054304	173.2834135863347	182.7430235304394	178.338332703473	139.4831766800354	119.0508148093278	122.1171487748059	108.7221350772416	103.4100699135508	106.3719584532357	132.4623797137269	119.3186616578757	113.1897270072813	116.228786793589
0	0	0	0	0	0	0	0	0	0	0	0	0	0	0	0	0	0	0	0	0	0	0	0	0	0	0	0	0	0	0	0	0	0	0	0	0	0	0	0	0	0	0	-65.78377600606495	-144.6818535335524	-218.3782670394175	-232.5100128988879	-233.3723444373547	-233.648244433313	-232.191180886186	-230.1976329680456	-230.5260483413805	-230.3376140454884	-229.9551724824375	-228.7311846160435	-227.2886887185043	-226.2868961500451	-225.8150190391341	-225.2225065194346	-224.3229600986652	-223.3851040969414	-223.1380696893425	-222.1301769753697	-222.3482674613412	-187.3274316791946	-69.02846437345895	-60.28600101691381	-54.36987430179391	-39.60245094738342	-46.23356586010858	-104.0905721397158	-175.0255801622519	-218.1775645529334	-218.0148655323737	-217.6088168107102	-217.4317999357223	-216.4964237433547	-214.9967037510633	-214.4472688881736	-211.8706597351773	-212.5773153554554	-213.6516048152182	-214.2685905036604	-214.9287727824503	-215.1755288529134	-215.1363056715763	-215.749111949152	-238.028184775661	-225.5995325017969	-211.964981032733	-207.8218781513459	-207.8525961248459	-212.8636858745494	-223.3729539279024	-250.5641675306074	-221.9735632652377	-213.6817686919808	-213.0657367488167	-213.3285167747279	-215.1957523284804	-212.2249845651242	-52.28540274978244	-52.84643587457293	-26.81412124213941	16.11514813978113	48.840067847612	67.55522605648719	75.57199217447372	82.81061585691162	84.64639040306568	82.25818200385511	79.2225108035564	77.84027571187865	69.9138264321159	63.67228925758731	64.32065362353943	68.63620642541949	57.35976862697355	50.35078057112504	42.21699465441673	45.50649419782908	67.13084986115989	60.53052318753717	75.39670382446928	60.20826185063484	55.75095801320288	58.7589338513665	55.30566460402656	53.20266674882212	68.65535921716879	90.96587693843239	85.37102412470091	73.46205679637465	67.3408093927081	66.18755571766728	58.58713785596593	87.08322043230616	96.88528594664929	68.3963694215015	56.84828372663511	69.79841772397297	83.38953563033678	88.54204413089957	83.70299201848532	91.24184953753974	91.96738465862475	87.99388436238581	95.86266223443452	107.9200531197594	108.4317686580266	122.8109231843507	144.9488344443518	140.765759389351	144.2700108914974	174.1778559580622	210.5383150638444	187.4057336359506	173.8863069957367	159.9395257185461	142.781126245793	120.3694167824669	122.3593913332787	112.6494172449113	100.6221725098829	127.088904302268	135.2669176961482	131.2958077065628	124.9372849254808	141.5439676999887	163.9866797397859	173.272554789533	169.845814081523	141.0141755152257	120.9137457540881	128.2765950204819	113.5422147835598	121.1554251993839	113.0215491018279	133.6895652789947	121.140308926506	102.8570473765483	109.7600204692531
0	0	0	0	0	0	0	0	0	0	0	0	0	0	0	0	0	0	0	0	0	0	0	0	0	0	0	0	0	0	0	0	0	0	0	0	0	0	0	0	0	0	0	-60.29841968858692	-139.0175596845139	-214.2662794528543	-232.8992440703664	-232.1460136180725	-232.0327077439982	-231.0169240575003	-229.4426485419094	-229.4097448908559	-228.6286826676967	-228.4121069777565	-227.3002436270017	-226.7458070914465	-226.2066160666476	-224.9848004551573	-224.514425694122	-223.9738298344671	-223.0437425758306	-217.0765068345634	-213.0646391702107	-216.1498820670171	-223.4843781806233	-229.8239931769997	-93.83882096303604	-65.00681178968478	-40.98530563900901	-51.77384573500441	-112.8862624747226	-177.7942369773259	-209.5150087813095	-216.9398829043734	-216.4982223753297	-216.0174269257116	-215.8967685943064	-215.6289881880014	-214.1523325748528	-211.944181280629	-210.8440303217577	-211.1666292889724	-210.9367215502021	-211.2165745607485	-212.6503701740718	-212.7248502573149	-212.9372041760369	-232.1267170807988	-223.788616318028	-210.9256227615288	-209.651052924486	-212.1998973148392	-214.273436862063	-213.2283355719906	-212.5385913055241	-210.2813476428861	-210.6887150742762	-211.7239508700766	-215.9540918213247	-222.0823805231899	-154.8780116800449	-7.426877105901232	-1.175923129938201	23.72278800771651	26.57706239160445	48.01347694857667	65.46402224270368	67.69911771224832	83.51230872151639	83.17200265829233	73.96329196267661	74.09600410536007	77.53409796579328	78.78754076795457	73.72304028752407	64.49557433840226	60.5493070106547	51.25160485028625	47.16396905693765	42.86775997612057	54.38669365618339	69.0115227367898	61.22773558915837	49.37231020053026	43.62844293123651	54.99802769092567	67.02802330773191	58.01905617334019	63.65377216170048	63.92323032137576	69.63982975418797	74.76033918797812	72.0562832535926	78.23117118711363	73.39231986674963	57.39785756675994	49.90933167773102	80.22259769168843	67.92739473506016	66.96049614244637	71.98933508848501	86.26482649481146	88.92295719345931	85.13995749543884	82.44187069964939	79.42390481653835	88.61821248279632	95.9042119182721	97.16992493289395	104.8314182688924	132.3628107473452	144.9901458092247	139.2583666258725	144.2205310094675	167.8591286757978	189.4569746590304	185.1557585810747	169.2147487002842	158.7627314883911	150.4475622186793	139.7110123371505	131.8476332066912	125.3374999978106	116.3511314418211	134.2824676076876	138.975375881097	134.6133565250437	119.2857783043458	136.9021293162603	159.7008621658698	172.8843172754671	169.0215211285394	145.8516194094875	125.7608756873765	128.032234591307	112.9008731680082	112.1524788732876	103.2915959552529	121.8449547182682	106.3938295286101	96.01089601583146	96.62382277418838
0	0	0	0	0	0	0	0	0	0	0	0	0	0	0	0	0	0	0	0	0	0	0	0	0	0	0	0	0	0	0	0	0	0	0	0	0	0	0	0	0	0	0	-83.86439776931915	-163.7486956834204	-223.0820193474096	-227.0456749633361	-226.5270675192016	-225.6516128291733	-224.8305946798517	-224.063669200865	-223.5317640847441	-222.6602763869109	-222.2166625246946	-221.5560514216917	-220.6068380017867	-219.8501902936368	-219.2231133202187	-218.6594728051675	-217.6692757017517	-216.4854615784277	-215.9639667742538	-215.8740928069889	-215.2789515090277	-215.0095945656734	-215.923381227867	-214.9838605209481	-204.362556636272	-163.7782781487755	-178.634695781265	-203.6268761993636	-210.2801115367626	-210.0831464861009	-210.6766398984585	-209.9375627783088	-209.7536789811129	-209.2299131978291	-208.634727399195	-208.7617551345886	-207.8448677993528	-206.3127042584615	-205.8741668614747	-203.1514036069892	-202.3984422748027	-197.3599487901875	-198.4552487760688	-206.5389045722175	-225.2848272303064	-231.3986745326972	-212.0150300932878	-207.5658920855199	-216.4702394009242	-223.8978589058683	-206.8909863310534	-202.0312603137493	-196.6389248245959	-202.7497259746789	-206.694408882357	-158.7086729089296	-132.1833945312321	-15.05588408213331	4.624453395330694	32.6494281812402	48.73952966519419	43.69468836186714	45.77238833441952	65.62949996925461	74.39915347409237	83.47445904103093	88.79359760607626	84.53198461210107	88.50013102501242	92.12173932062242	83.6877432053987	82.11841523124681	65.8698675214734	51.21735878355512	39.62910137543209	51.52187392042485	48.87389828901645	57.96791623565433	77.02010465353555	57.64817644578431	52.1841553006815	47.60641726916247	53.50138353900163	61.53499844090356	53.75353789233028	60.39430776413752	66.09955775304692	73.75762111769119	75.94656576081503	76.26633503137003	79.64096885989179	76.70488642945691	67.76599104956122	59.16030330970188	61.34392221178199	47.79393181529185	56.03892899107886	65.2904231015703	85.75021507996807	91.31072066022962	88.1206207426479	91.75092454897562	86.67281960579247	85.72493746520151	101.9732154060259	98.48647352252148	115.9815828759189	151.898391493615	152.2063472547165	131.4933325059703	145.2443376427425	179.2119342193069	199.8938620459257	202.4323014360213	172.8669290246734	157.5922907071125	153.0989922071456	147.321151325764	132.6822617870157	124.6273502696065	119.351780139207	131.491357711226	138.8852694290702	133.0709291788068	119.192015197721	117.6637112620649	133.6513535137433	169.0392167097041	159.6608271338381	138.6137895871377	122.0167624311487	121.1632668481543	108.52547168443	109.3573889757654	97.66881282887212	89.63885164512887	97.51474960063931	97.09674934237387	105.5495910645097
0	0	0	0	0	0	0	0	0	0	0	0	0	0	0	0	0	0	0	0	0	0	0	0	0	0	0	0	0	0	0	0	0	0	0	0	0	0	0	0	0	0	0	-61.73186721260606	-140.8496991958637	-212.7397968235721	-228.4801476996111	-227.6868123042769	-226.603792714015	-225.5603892757629	-224.6238597733932	-224.0382513812499	-223.4914439311836	-222.7593643744085	-221.8065347746406	-220.9195014233309	-220.5281067317545	-219.7618161742531	-218.9755514048587	-218.3720699559085	-217.6649115035441	-217.0866272798541	-216.5796516059695	-214.8360290569798	-213.9588560044495	-215.3401760367786	-214.210566385925	-213.4987043090059	-214.0873509984745	-213.6122716616272	-213.0332559363873	-206.818679035951	-198.3993964293661	-196.404409704089	-201.8466423992764	-207.2806562098048	-203.0337822191877	-203.8441326250261	-200.9807453102431	-203.687091536997	-207.6219575642551	-209.5205580439219	-209.3986961910986	-208.9555007293484	-208.9975685281841	-208.5328972997299	-208.6929065346042	-234.2979388172363	-255.8325907630434	-237.4938292595691	-234.6838460525835	-250.5212015433992	-239.2349083611396	-225.8519410930533	-205.9507804087068	-201.710971906754	-202.8147176915259	-175.420596150558	-122.6801066130556	-44.28857696525723	4.941391996813564	23.81607502845878	38.90553684831335	46.99248475677865	38.74647200284411	42.47169714323087	63.30154898366997	72.68149133681308	77.07904408315055	84.53125523378624	91.48416817318952	90.04902454146949	123.1819792606291	106.0570178841892	75.50081929768169	54.50533471059573	47.33225487609967	40.90169501451688	60.68373188448048	66.70596043977899	70.01608494169649	73.07673157525088	58.43644043742762	47.45119944416163	39.94223453934495	43.35468314152561	47.96653390027223	49.02821218611146	53.40560577639508	62.79341013485047	73.35865785867664	81.89942666101147	93.57222914788608	87.36566515984646	72.32906000800645	63.89697900433195	59.42910094920809	68.05053158692107	92.79953017598238	74.72399920735791	53.84650285333745	59.87474066410044	76.94237064556545	85.16842053717795	95.75969393514787	90.49374688342074	102.5280368962705	112.2837233363134	109.6915836028523	120.934119754773	133.9634449817871	137.5614776288126	127.1041557520611	133.8253037732936	159.1553720441532	198.6214340958317	192.7120709554606	161.6381629324817	150.052278282284	149.3827706238977	141.6072396256288	125.6545053643086	118.4046100459112	118.6627968146234	143.3728350601829	139.1108059456418	124.222813362892	131.3374822138669	138.3537182572658	135.1414086391951	129.2679337309575	150.3709798892856	167.2585311043838	144.5580443964169	124.6490500221758	110.4929907492847	106.9844136951033	94.38142586024742	95.74968973634934	116.2167839056169	133.9036580439015	112.8114997034356
0	0	0	0	0	0	0	0	0	0	0	0	0	0	0	0	0	0	0	0	0	0	0	0	0	0	0	0	0	0	0	0	0	0	0	0	0	0	0	0	0	0	0	-60.96489139887679	-139.8891745541363	-205.2997332448087	-227.6566648045247	-228.6024604568741	-227.9405867485802	-227.0437564172316	-226.1467602989329	-225.0020636030266	-225.1156392115501	-224.0535400249283	-223.3803866099786	-222.3311770723699	-221.755217871105	-221.1814199366987	-220.1368814692148	-219.6018064454987	-218.7799333757881	-218.1414916536392	-217.7223920177007	-216.2875336136749	-215.6114387441289	-214.9246722548962	-214.2592274303473	-214.7548759574145	-214.5689321255321	-214.2894765227709	-213.4927778479535	-212.5825888300992	-212.9758406757624	-212.3407157857753	-208.9307662054634	-197.8734880940558	-189.6258845953816	-193.575108463391	-200.8745059517148	-208.2207144960277	-208.5332904756107	-207.3664666720089	-209.1988108067677	-209.5673849560571	-209.5583096178187	-209.4436648126921	-209.9334242823313	-244.9845308155064	-284.288897568379	-279.1207228003036	-277.2662951083358	-275.6690144926716	-257.3529893278136	-217.0787408695493	-206.1396649567155	-205.4824853135374	-196.971903925799	-146.7808809664539	-76.35883778515854	21.75356992246754	25.40367612590181	30.72177426062195	35.27804960031351	41.40617249399232	41.48894435025021	48.44810218616097	63.31409507224071	71.75096721063855	67.1674528174335	84.30986838832509	98.92898370274878	81.05574290600364	86.05918389698451	90.287196980255	85.62449770634032	46.50533924326973	61.88510636096481	72.59382706149674	46.91087505271116	61.50245356507205	66.60525503379769	67.4612557098952	67.14686519454098	59.33570164404573	37.31572518181441	53.72019142397248	80.76391336974537	85.60095634645801	66.03797727856251	79.25121591043529	113.7220923480894	125.8005390457486	98.14214057560119	82.06987155725307	67.88015179575845	59.43298698409632	53.06044822930235	82.25398751960188	99.2798913698188	82.3585739608294	50.72002240228696	58.78359652273202	79.73406536827774	99.23245982872061	110.739611963659	90.13494946635508	108.2591898326195	125.5736404513972	129.932894653615	133.1854374177477	150.4475953665144	146.7483371628832	132.6198401641056	128.5286597120109	136.8026885404899	187.8019912787097	186.5179989124075	155.9042173506329	154.3093360854078	147.0927476341463	138.032607648154	118.6447150926753	115.3105884864389	118.4495294154008	143.030478992992	135.5305711649968	115.8681103603012	133.6167774200705	146.832270813146	139.8607782215802	130.4762565978844	162.5584388767603	166.642207625349	139.0641116765179	104.1794296877163	100.9463921893017	99.67301836080313	88.12442409090016	109.9890822064134	123.8476433892425	127.4727925426318	95.42002826684542
0	0	0	0	0	0	0	0	0	0	0	0	0	0	0	0	0	0	0	0	0	0	0	0	0	0	0	0	0	0	0	0	0	0	0	0	0	0	0	0	0	0	0	-70.16249439596389	-148.9623756320165	-217.8780350091566	-227.1309175724556	-226.3347532037876	-225.259388290253	-225.0541132064016	-224.0347353568425	-223.0505226633817	-222.7476757357138	-221.822937722542	-221.3149364733104	-220.1433202120041	-219.3316917279016	-218.52465506301	-217.3377083003284	-216.926813196058	-215.3773350931463	-214.059234284008	-214.3347576928916	-214.4132344495572	-213.8271060846292	-211.6031898020852	-211.2719315629882	-211.9968563126809	-211.6071815399613	-211.9692740628486	-211.6585367370185	-211.0325191568867	-210.9762206367229	-209.6895005312652	-207.4998523857996	-209.4155376923404	-208.4750816033911	-207.1697434412166	-206.4059225219278	-201.1561109880923	-194.6090084214582	-199.1396928088244	-206.1456894939543	-206.398593776451	-206.6534634199746	-207.8733637241788	-223.0601594315524	-280.9957280289601	-283.4119324976153	-274.7108344914944	-273.6146461215795	-273.5258141120669	-256.113947371974	-217.39688766976	-204.7957065880947	-202.7592430437945	-181.4761146408005	-111.0270822623176	-31.30760995888074	27.12900324222297	48.66881323536938	40.09374710361023	32.72520653070887	32.65895491690671	39.81262196837343	50.46123040103257	65.42260919507389	62.03126759297928	55.39220969259816	96.81519185502289	100.2258864497625	76.61373987188861	68.1767084465144	78.92261617827094	54.56932382114077	35.90345476262171	44.75656074956648	47.67241575605453	55.75917408320232	66.56028656549238	64.45211995669673	63.85954722535921	69.73149443796991	60.86986650281835	45.25005339827558	49.28233424950787	67.76739792900197	71.50657382634539	73.22839568668964	80.30428964644034	102.2379656935693	107.3580940216711	97.1397777359193	74.99561456726218	61.15181077188144	54.78566834298779	55.98007189776955	91.32614080413128	101.0787887606079	80.15207662616916	62.81468643236649	61.79524085634406	68.32320897307635	85.78630385975612	94.39401636099539	102.8165547030643	124.1787988073417	135.9850735563538	132.3871992531122	141.2405865642201	149.6788719778534	129.7183322661535	131.668547170009	130.8922109679478	138.4362556951179	171.4790681599753	165.2802594425756	152.505226341631	150.7764079271048	145.5729587883402	159.8084247256701	133.1300945619649	118.6544566464369	123.1444896188953	133.3525577640491	127.843879420439	122.6516003920384	135.3151046786363	146.6493128624892	136.5554271067447	135.2886641855865	164.4621069948215	166.3177656776815	145.0274726197202	142.8889436088518	124.6379696543385	114.7400576541704	94.40057372911713	112.031987012174	117.6215594142579	122.2792105365402	82.52422306252687
0	0	0	0	0	0	0	0	0	0	0	0	0	0	0	0	0	0	0	0	0	0	0	0	0	0	0	0	0	0	0	0	0	0	0	0	0	0	0	0	0	0	0	-63.34344965116019	-142.510326863477	-213.800761394186	-226.7248890846152	-226.4958876856822	-225.2522375464296	-224.9345785207731	-224.1469006534385	-223.3809237540157	-222.8314355660969	-221.7822208043416	-221.0115426053907	-220.2936945361937	-219.3398017692901	-218.1488341757652	-216.9619530867994	-216.450383092631	-215.1791501675879	-213.7861901748437	-213.3088859159449	-213.1832306932423	-213.5381788605383	-211.7641945096881	-211.0840826416373	-210.3998325510216	-210.942286731889	-210.6189406130041	-209.4874488052293	-209.8995170656976	-208.7668144596125	-207.5606111232631	-206.8916741960556	-208.0279159909912	-207.4478889824674	-207.2736750402885	-206.1874606281544	-201.3664894566429	-201.9028453389542	-204.5059956329085	-205.6077323711463	-205.3404145205902	-205.5589544586008	-225.1667039432742	-271.6688235594259	-290.4878857547052	-283.3018816002125	-277.3269074534911	-273.7564691936565	-266.8821941450311	-235.2130645005768	-211.0608908670638	-203.6708668229093	-191.600633700876	-152.2510914403896	-88.80052272245473	25.410995539179	45.40164352812062	50.22666684689938	37.52914684141004	34.12733074229158	34.47292938950992	44.28663253973111	47.46898521303067	57.79864939285899	62.25361131158329	65.25323518101409	73.48325627650836	94.31238682649499	69.18000350716784	64.52338880461812	61.23867006802885	43.01799501460234	29.71873631843157	46.15292735142909	47.54773712448872	60.65704240973954	68.39020411371418	66.44449974401634	65.83611754592033	70.72168698082832	56.47621792605674	43.07459037984191	46.49612850418044	64.5833584605766	106.4286204828092	105.6908653940787	114.729334519029	113.0745496176708	107.6320087769004	114.0792913897125	75.5335947504154	57.00893669846612	38.21164123922718	64.39880518820723	94.19822800543173	100.0775978469442	74.58846161306937	56.74959325258953	60.73130235156904	72.01330525310478	81.67549334926386	106.5996741460759	127.6035251175709	129.0264306483602	133.0555592910712	131.6219156984251	139.1280612841996	145.4196477442931	135.8012739527941	133.9291849427993	135.9525439097758	147.9101014356509	145.9970723443351	148.2522575091742	146.7566305665652	136.3929942622463	126.960604793301	125.6680004583217	120.9600443855254	115.6720204177048	121.4466886368413	122.9279795543184	116.2409424557848	113.4033236170057	127.1463291895121	139.4942777817712	144.131686165798	145.3527082364932	158.2317762370184	161.9209825832841	153.8166430922646	155.0176536644233	141.6121372180718	122.8782307061195	104.9284864068283	96.48572767774466	102.7685105296001	80.88884048399024	64.58493061146116
0	0	0	0	0	0	0	0	0	0	0	0	0	0	0	0	0	0	0	0	0	0	0	0	0	0	0	0	0	0	0	0	0	0	0	0	0	0	0	0	0	0	0	-81.96258977635959	-161.928199029575	-221.9477351338665	-227.3149232232444	-226.4934735626931	-225.7289436365438	-224.9185132392466	-224.3263385508927	-223.4145914880816	-222.5147260341739	-221.4999385073904	-220.3288518159316	-219.5884230403607	-218.8193169562264	-217.7231015112542	-217.0810976204341	-216.6142915320959	-215.5537668620301	-213.7108454945427	-213.3083633183579	-213.0198092482902	-212.6547413507902	-211.5326357135845	-211.3254997668652	-210.2229834726094	-210.1928954084997	-209.9231047925691	-209.673808849034	-209.5178591841075	-208.2710492407092	-207.3268885029186	-206.9620636685972	-207.4483938912065	-205.8901882719186	-206.034855707766	-205.8000135704818	-201.0974507450411	-204.8826598685432	-201.8521406354513	-193.9570402146174	-201.6999062075133	-220.0175334548404	-271.9132431213534	-283.1226538760034	-267.5143320180521	-254.7147718129526	-275.033398531034	-270.1342607060265	-272.4411624852963	-178.2938467157889	-136.4053149866612	-135.9040091523531	-136.4260914830213	-107.4840044447762	-46.8621067471021	25.68462375009268	45.77024103033526	47.57029606023123	30.9924700203674	32.78073059647296	29.94841803262379	43.52368134689716	62.86183235368865	50.62140043457233	57.1025355748116	62.09849280262497	61.05134889718908	80.05564031901835	90.12703441768571	65.62038291374532	52.89453291836247	39.76286815925013	62.28926224782873	53.67057389107393	45.54588467264177	59.86744039326587	63.71903676624618	62.63130550446724	60.88764121391427	62.90189728724998	81.21466452507163	87.78456657085836	60.51541526490605	38.25388336374083	57.97454662114002	66.22063472205609	81.4674252777647	97.87314910575081	131.8753924797504	123.4131144790639	81.69663103677485	76.88342627504284	68.04569133917235	64.5259321583834	62.81768476564205	63.35217001810986	54.5252495160311	45.46646522792759	57.113074710946	73.4346831240867	80.49947277048548	110.4927484973095	129.2398708908784	128.4127204924085	126.3013429121985	130.8705778298863	129.913871902624	147.7762573401024	160.377636267658	136.253438350893	139.7923605692542	148.5018730334092	141.9944779786313	145.1104520955112	144.8964133995768	134.9254439116006	140.9269564563036	144.0327763252986	117.4715871826904	111.2777894687814	115.9957246334511	118.6801909533543	121.509976301235	111.7413454899915	115.8575167007957	118.1135682713873	134.5721832849123	132.8678199068167	130.8628735097433	132.647753311137	150.4337482824567	142.9398517134336	141.2893603809112	117.145436204651	108.0213916103558	86.50780394597139	77.18966024166784	75.42111317984848	63.28125013667816
0	0	0	0	0	0	0	0	0	0	0	0	0	0	0	0	0	0	0	0	0	0	0	0	0	0	0	0	0	0	0	0	0	0	0	0	0	0	0	0	0	0	0	-64.85345325455312	-144.1405145030903	-216.99486991404	-231.1399463787642	-230.3670413762326	-229.5879127485761	-228.8148760945826	-228.0503444356538	-227.180040161181	-226.3241830210848	-225.4982279134947	-224.3770068647336	-223.2930084336773	-222.9249897503441	-221.84275540147	-221.2551001579143	-220.3284318437828	-218.5787425354518	-217.9820655377285	-218.1844693060992	-217.6742063078015	-217.1783044762871	-216.5665125328604	-216.3694713737125	-215.4344044901804	-215.01139629513	-214.8371532487995	-213.7530411886069	-213.2684390919094	-212.5109611654007	-211.9712452127598	-212.2765937952339	-211.2799514572711	-206.2854530410214	-198.4773051035649	-206.4568137474203	-208.7138437515206	-191.7246344564676	-174.7781156144698	-186.3034411607796	-201.2759605975578	-223.9990456207472	-276.5216051783377	-263.8363656987602	-240.6584955690454	-231.8344255736788	-256.5060497547528	-259.384803291359	-258.4939046895241	-184.874031296022	-100.3529529271597	-45.83436749221418	-17.97796414829686	-4.000656783739585	5.808891148366332	8.905127344218007	32.32623378117972	40.93855066938485	43.95054415646887	35.56828602538471	24.61595542574911	20.04625602301624	33.64545893797401	42.2728919897551	43.67036585814077	48.61195736710219	51.16453156923274	63.73180255297806	69.56470418679936	60.03600314769527	54.12337017785389	52.22508275994436	59.89451399958274	45.18523631077106	41.66805718101343	56.14307398166828	58.90951792918647	53.99820787710961	51.53567864882464	61.77380581821865	88.82887781260867	83.49922224505745	66.38491398682187	66.511619796332	71.18959954584848	66.12875373735146	91.21541607012657	96.69273544206122	110.46198030179	105.6587047306712	88.16859401141053	84.73006557140741	66.84856340578469	63.16254289459364	48.48369199384523	39.72267071239732	49.81654053186485	51.44044274984233	55.4391551244912	63.56033063898624	79.24881969362551	94.54012647914199	116.1525368624176	123.0938985316171	127.2592004863936	111.904891860955	122.1150196706318	131.6197610151146	139.5523698716339	146.796944376933	159.4136810629769	146.4655067456171	130.5221531770419	133.3133894384681	131.6439465165156	124.0918967088404	140.9959016783686	154.4882321953094	126.7831978911436	104.2014110489787	97.49572042613023	96.06311729756838	99.93244823732255	97.95887301509138	97.16405713322452	117.8070168244075	129.1643735897307	125.2241098042701	112.0706648611981	111.6274794888155	116.1874982102989	115.4115231281381	109.2790153986213	109.6389387507834	102.3607184128955	81.80340846393803	110.1098751457234	97.27301356736126	62.53176332576901
0	0	0	0	0	0	0	0	0	0	0	0	0	0	0	0	0	0	0	0	0	0	0	0	0	0	0	0	0	0	0	0	0	0	0	0	0	0	0	0	0	0	0	-88.72254039052497	-168.2423041304429	-221.7648485878597	-229.3130956621198	-230.2986319137235	-229.1884416721678	-228.171694138144	-227.1889679185352	-226.0295431032585	-225.2023552534892	-224.2707601427112	-223.2629180864101	-222.4089687774731	-221.4294300890679	-220.5730418403532	-220.0221961373394	-218.9601800963453	-218.2142554175852	-218.9491673737389	-220.241463939097	-218.7198829729144	-216.6523829748072	-215.7842543013448	-215.4462125619302	-214.3305602344315	-214.0071722842345	-213.6142962199591	-212.4571597419027	-212.0293786317177	-211.8759649571957	-211.7215704469654	-210.9561112557641	-210.9953595098418	-202.482642413543	-197.4223605149291	-207.7425277091393	-203.2177639055378	-190.4640535354136	-176.4610402523697	-166.8589292800646	-183.5749183209119	-198.0713919813732	-217.5847894905476	-239.3040239186543	-232.6547801263331	-217.6602059508538	-201.0010831555805	-206.5743882668258	-245.5375364986581	-258.6665637581857	-201.9982077365709	7.866795231917672	13.84079907404333	23.85969043034359	19.02972219793304	20.443969678353	28.44030774483662	26.7727526197015	23.26569220432868	24.16877781911283	21.60840659791774	11.89538007952698	24.88998880938011	37.49862638154177	48.17647590176734	49.27551643218202	44.44541912765051	58.51414507997633	62.23264518708717	45.79064013140572	51.91586152950705	50.72368852495099	58.98858919078841	58.79757326153406	57.54587396803723	56.63221220914897	58.25285692297692	55.62553863829748	57.46451359736093	65.77349666989882	75.13363476464069	75.20671861139449	69.07923084170908	83.97777364586405	76.24694355852169	71.90192450531772	81.9746190146347	95.42954800978414	96.23253407567692	90.16617994009081	91.12618208885789	82.64730973831402	65.41477796334721	60.31843615800025	63.07898207015234	45.5636291123952	50.87229670171712	53.51540381128754	53.587117563768	58.52831257085651	84.0496790886267	85.20245641343074	86.42200794433622	124.1724249750731	127.0754198292091	118.6085464869256	121.8704093321473	126.18260754304	127.393893525959	130.9337996222979	136.6787548282117	124.6887108426018	126.5472927406814	126.8081354172543	135.2250730541373	145.5671863729955	165.9501866968686	177.618752533895	140.1545352893117	102.9028414114517	90.27432158081403	76.6106952270318	76.90833305448237	86.13610619143101	92.50641101939941	104.8406742428304	114.9407682966576	148.7677975617609	162.6149040040314	154.1556948758554	144.477611637037	118.5022156581438	96.85920357499811	94.8054842221662	94.72094261909314	92.16632343160391	79.57562325208266	77.14034262656409	62.94156450077514
0	0	0	0	0	0	0	0	0	0	0	0	0	0	0	0	0	0	0	0	0	0	0	0	0	0	0	0	0	0	0	0	0	0	0	0	0	0	0	0	0	0	0	36.00443699787861	-61.37593423712003	-172.0245942499056	-242.4806833359663	-236.5574831579772	-223.6753368548778	-234.1878422177664	-241.7792355611095	-241.0939092624384	-239.9801472495704	-238.8711076149074	-237.9952937026713	-237.5312246305904	-236.3113552504159	-237.4625981597735	-232.0818915315291	-230.9614409763645	-219.0355103178028	-196.4018417446112	-179.9017238647494	-164.0039231921816	-151.8958023643661	-138.9281124149846	-172.5532734541308	-190.2647570532785	-189.4277943335571	-190.4239009009847	-215.4551814363616	-219.3364465690698	-220.951717206394	-218.4161983392293	-209.9474453066595	-211.3443273999114	-203.3831909494118	-210.7880133145094	-212.5837378767642	-198.060784257704	-184.1626239248911	-174.0205582697901	-173.4346340305456	-163.5706915037752	-143.145662882723	-150.664084726032	-140.2680371577709	-133.3909693417085	-131.3150449426748	-122.4458547209146	-93.38734732293415	-66.46912033425575	-30.95158920427383	-0.5691529814758916	19.99798065896395	23.48891618995612	13.03237449297828	-3.217092061122363	-10.22221146232973	-2.83396510719753	0.3644667240659902	14.04114301621952	8.041300127423497	10.33328790839967	17.12659657185772	19.428904731799	28.39595123422932	33.40401361082125	33.51702779710151	29.40827864113893	30.8100283877223	34.57374803620232	34.53263086397578	32.8853588305517	24.82776047394421	23.67864822979388	26.95279088274092	35.20459788622325	53.03543722169383	66.30405931390042	59.08444583726544	47.50446702557819	38.10884758658362	17.58514854411682	26.45781436022223	47.10414806215756	68.34223367186878	85.46434943784259	87.63291071792703	73.30495336772509	82.53430708375684	100.9719267610471	102.0961014875871	60.01466399883148	56.4715334213503	71.9934521438833	99.79289481443871	112.4219015841286	67.9864174976647	45.76235511104174	40.78644807394765	49.88730593481203	67.71074101864947	77.62403395555992	92.06254231918841	95.42989348346676	105.8302948379658	98.81744434851663	102.5881151712696	107.0143480887538	112.4270827609727	127.131141429024	121.6602912070843	107.488204297231	97.32843385044646	106.0142907981085	102.5821794714487	124.2202428402934	117.2312325525577	100.6945219772721	97.2120051217811	85.17563708766411	74.60409449537241	67.94790433231812	75.69610304609749	81.87392572153931	89.84897791228867	96.8994737490262	120.7001665464154	118.0421996430213	127.1384378588564	136.7242540160641	119.6682431759408	120.3615328039619	110.3220514648238	97.03063387894099	77.292765794443	53.73524926585561	39.13183106341452	31.04718564165814	23.23398725180062	38.93052131208666
0	0	0	0	0	0	0	0	0	0	0	0	0	0	0	0	0	0	0	0	0	0	0	0	0	0	0	0	0	0	0	0	0	0	0	0	0	0	0	0	0	0	0	28.72243826579603	-44.47091609793252	-121.6322564428205	-201.267795052029	-236.4450690149342	-235.7656977584425	-234.228829951275	-232.6055356140642	-231.6513868855157	-230.9380042856349	-229.5382792016124	-228.5547356374413	-228.455667233637	-227.2928141467098	-230.164686054857	-225.0438075223135	-228.5668598392537	-221.5503169334064	-214.817039273334	-221.5885269438751	-221.5411368332548	-220.3653336782229	-219.8185870717483	-219.0052643976352	-218.5639907420004	-217.3096109398417	-217.5458252586378	-224.4364624430181	-257.4704543679548	-254.6111166265093	-247.7340839740978	-244.5332380950258	-235.1945526704241	-220.2134885823748	-211.4043038497656	-216.968739640966	-209.5246709790776	-199.0731185196024	-192.9793098390554	-185.9804674933394	-178.6304821659347	-170.4402664342351	-162.447459520366	-154.824505004756	-148.8398310059637	-145.847894005678	-136.7615637026921	-96.23661693002923	-65.67070508177309	-49.10277984219665	-24.35816315704613	4.460122235270732	7.775099402831289	5.75742916138238	6.446787462412223	-17.10773426041585	-5.848028598379734	1.114688657734797	-5.232911096943814	-11.14962699868713	-4.054651717603179	7.218493290858675	33.54446397000464	55.53219958501888	47.43893713687771	33.43300244799446	34.08049540401792	23.96184372496447	28.08641049912951	29.62866290325869	25.26341001542119	33.2541719968951	46.55469216715169	59.79873108399615	62.33595930908748	60.82429715486829	57.34375869420028	62.78562422422268	75.59022372571123	55.52952306826259	14.9160365818166	31.15268457089308	67.83746361245946	91.70523140669201	95.99296781218513	86.91286154741232	85.18446613361174	80.22294609845994	88.33740321925208	111.5846002993606	99.13607647553955	75.08514788096655	72.65441619676155	90.98419808257448	96.43918664100214	73.2633081379004	67.10595619493883	79.02737358238441	78.68881415191854	94.34677185718229	118.6693463859219	110.9008345222979	96.38605972423747	103.4213396917095	106.2614643136913	99.67883467799433	104.9319988805614	110.7793216280457	122.4707044942031	126.0568872540033	119.4424439202514	137.3570666348125	143.6384133195588	131.1560516806788	126.8373796300415	132.5744668137541	120.294417894886	119.352764696959	112.555661066787	97.19871771502103	91.61029660101002	83.96512251417215	100.5638881316792	106.79926876921	112.8484356445904	113.169732442241	124.1070511349984	134.6689191605567	128.5460628064351	118.4805794288704	127.0803081389186	122.9376024885037	90.38478566201793	72.9709088369389	77.35807212936588	54.19502250505396	46.26938579545654	33.98174546448035	24.22029046884508
0	0	0	0	0	0	0	0	0	0	0	0	0	0	0	0	0	0	0	0	0	0	0	0	0	0	0	0	0	0	0	0	0	0	0	0	0	0	0	0	0	0	0	26.32690235851634	-47.05251898687941	-124.331219146375	-203.3774686111591	-234.0562463199975	-234.6153122028641	-233.4525576351803	-232.5134470314651	-231.192288304695	-230.2216202074694	-228.9994561524599	-228.0838191964075	-226.7540593119363	-226.2955254114145	-227.4374346375142	-224.7889637808603	-244.3292541126511	-251.6249319262695	-245.9561638864718	-224.7178918109461	-219.7041168146164	-219.195868544364	-217.9791131812857	-217.2319017063676	-215.8664298426073	-216.2353564016593	-223.561021450545	-223.5162126884944	-249.8540422592299	-252.4419821617124	-251.4820817585093	-253.8110798841679	-253.4815872750531	-228.2117109487219	-210.1427121829605	-204.1824838228314	-210.6117604540632	-200.7397724519038	-193.6128253061014	-185.3470113684403	-176.331227278561	-168.8717108301333	-160.2700563747161	-150.7580429182615	-145.0698272471098	-143.8064058390703	-116.4660172388204	-91.25438708977418	-60.18445753611926	-45.32584978694317	-36.06069902783694	-13.4816056128372	2.222427418816833	-2.91839455501787	-9.668102265980082	-9.507445098793594	-9.89456825813792	0.5797469963615687	1.70763811421549	-1.279295534916677	11.9350981225554	25.57554345306606	32.72047828743883	39.57412748420187	38.28605496131494	43.06330218222372	45.30145132665108	40.13170701792161	48.85717820911571	52.82028707933937	51.8284780780174	62.05677614586312	58.2177930702299	53.09234126817241	49.93323139497028	71.69362104270067	74.80310053364106	50.00101842684464	50.99241499915618	51.56744456833722	39.23864875282474	49.49073452603583	87.56796220898984	137.4768807926508	150.006134678277	92.88951462055088	69.72673583630223	72.75257391448874	81.09160423028148	94.50985412190889	89.40593477376606	82.3738178865373	88.35510391470089	95.21639349039651	97.37551436437502	80.59192439154397	69.62017575033983	84.71239096181455	103.3979589084345	109.4381748961193	126.2131516028583	129.8550673739426	118.576650023453	116.9655160041446	114.9406429220897	110.8289902537811	109.3736331822268	110.1790852071279	127.2427024573622	140.120450136049	116.2467413020743	106.5176814567244	106.4575842750176	110.0955098194541	117.7242948377684	118.6257043863996	111.95499866417	110.1277715915486	114.9026177512114	106.46883449663	96.62802037753231	93.92056217945758	95.13231539534843	103.7545410680886	112.1957953113529	123.0187246401401	106.4711057021291	102.8472017648813	106.7079173333888	116.610053654856	126.0379549255485	114.4994059593454	100.5076183090048	78.21617313099372	63.02996802451594	53.63398932884149	36.25107949339608	17.70049332296406	8.677986717753074
0	0	0	0	0	0	0	0	0	0	0	0	0	0	0	0	0	0	0	0	0	0	0	0	0	0	0	0	0	0	0	0	0	0	0	0	0	0	0	0	0	0	0	32.31989455756288	-42.50738240671578	-120.5365447037279	-199.3189225425086	-227.742000346356	-231.5795828263426	-235.4698783636661	-234.3027953702808	-233.2627414539251	-232.0784992342882	-231.0671853753082	-229.6339219202734	-228.8868296599173	-227.8728807521606	-226.894764127328	-238.4337855552882	-250.7253733214705	-267.0681128599921	-258.336698007812	-250.4214892278237	-233.6066337100897	-233.4769097330171	-240.4188993202499	-222.6444130625863	-217.5907665513752	-229.6988114500609	-236.9884899593957	-239.3843625521793	-259.19855019517	-254.4305137294315	-255.5786589097615	-257.5905472767768	-259.4055432772419	-248.0441752444279	-232.7085773680905	-218.5319665187749	-212.8570452814473	-203.6320123559417	-194.9458095818232	-185.8030804528916	-176.6917503470485	-167.9254068103226	-159.8206077172989	-153.0498241883129	-147.7246169615963	-145.9294363342461	-77.54800778731584	-46.11770224635924	-31.31453124703051	-16.85897475720298	-18.43971829355894	-8.592829821322447	-1.926084291806311	-1.493627181816398	-12.47280786327103	-21.85030863522287	-19.09842541965311	-20.38882449235198	-12.43205876166472	-8.952237844524673	20.82938878102734	39.00570596805098	49.32141315220169	30.48821003938198	28.19970872022648	35.54890222836289	41.52515760366035	43.97095505942704	51.12605715530749	78.32151681037456	80.43935648968645	84.75900991598166	81.74645611377872	69.24546332808031	65.64050367682461	68.61190174224569	78.74067542999485	73.49812324491221	78.39858932719321	58.58143806893377	56.02464510032495	65.49906261030567	80.46453551335476	107.0588490584607	123.9921510882532	102.7638574909502	70.74425491302333	84.10983335220958	87.67808087108567	92.10238468634068	75.42967934070865	62.88250828436575	69.94176150427037	72.6274518699318	80.55110310626131	83.95694824280169	96.62761266547733	99.60333653542779	105.1308022750038	102.2986650473148	111.6204985387265	122.9630891332007	131.9850052063224	131.6024029708518	120.5687286140321	105.5227850342777	113.9258807725794	115.6308721766719	120.1138721549948	118.7888955249567	101.6307173070441	99.59311804243237	106.0608914547685	103.7399101937078	110.360773900925	116.1582828859376	113.8173331255114	108.9298734592921	103.9337254573361	100.709550273288	86.90728648989302	96.22652253107198	96.49754184577736	105.3141044185291	110.5720932222606	113.5152192103618	130.8407930590245	127.2401664607627	108.0736411650595	112.3763042125564	105.8597558667226	107.2491355832997	97.53947494494275	69.09811897991372	55.70466081495844	53.30860687535236	32.08776952792449	7.740438944567313	1.674571933344749
0	0	0	0	0	0	0	0	0	0	0	0	0	0	0	0	0	0	0	0	0	0	0	0	0	0	0	0	0	0	0	0	0	0	0	0	0	0	0	0	0	0	0	31.62780412385388	-41.70346542180123	-118.9752845814781	-197.9763119265085	-232.8348060670957	-232.7696559804189	-232.197613983661	-230.5297857610184	-229.5450868554969	-228.3934356175576	-227.4391819746582	-226.5814014548918	-225.04631012965	-224.9133618002399	-224.2234039362677	-251.6294871399849	-266.8297326008572	-263.6196975769739	-259.2514001201401	-259.5638080551012	-240.9171702690053	-237.0168053705017	-236.9773337001663	-219.7017580555801	-214.8273779393081	-221.5162538832134	-233.2838992648003	-246.2384900063041	-252.2984972782765	-250.6841535111994	-251.9211351336583	-253.9364033054185	-254.7839792886033	-248.0253216925407	-242.061137750649	-224.1077366137098	-207.9206164454772	-200.1744894008138	-190.5114285045484	-181.1150017240327	-172.377980169388	-163.784750968988	-155.4408467541602	-147.0413375083639	-140.3328861052558	-133.5391204568211	-89.89816345620171	-50.32994161914148	-20.19604472681691	-9.73362714392438	-6.10323321522857	4.822348719476524	8.116503246481262	9.656604953774652	14.0447999777458	-0.6380910852562985	-21.27993078620563	-22.88853769779448	-19.19090728011927	4.000112290100247	26.12957023469812	22.07964348929295	23.30267127488699	30.07508386876296	35.90193179948489	43.24739015094356	52.16876818142889	59.96292313168915	48.9186321590574	53.00252867510812	83.03914951646574	81.36489131460591	74.31528289043824	64.50128009959039	74.75819378622451	75.97510105491723	74.03333693173215	71.9891160445051	84.04840229737037	73.51959116189505	72.40232416410436	84.70985016018315	91.96612079491931	93.57806046665283	96.31269718525948	98.39395826709969	84.72807765380016	85.65126248528901	81.24839802681805	78.5176865566654	77.84225154594542	64.34680171613023	66.40313876038563	55.55123600219633	54.21899496960614	64.05142185762588	79.08528713252225	88.87676292518357	101.708066446366	104.0530655168658	114.5060035567815	135.8214334281408	136.06662455402	136.5256574054634	138.1186268254565	130.8883393266953	98.58326029295387	86.54165032287007	109.3386048248425	113.2404059187833	101.9142087893204	105.8719813201375	102.4182626721796	99.11862196849719	110.9466944495366	137.9979827000489	148.4117451089943	137.4570961051638	101.7765935794769	103.6886051325225	98.25577855311536	96.43410698507665	105.9436522091607	108.0233195649807	108.5597444253648	106.2925484992923	100.0026090471527	96.1908992006868	106.889114218713	120.4637118202924	117.3966497248446	98.07471391938353	82.93388492665117	68.30033469816816	51.43350233875725	39.77241415686944	21.9695094448626	10.32021425028187	-10.71948978884396
0	0	0	0	0	0	0	0	0	0	0	0	0	0	0	0	0	0	0	0	0	0	0	0	0	0	0	0	0	0	0	0	0	0	0	0	0	0	0	0	0	0	0	31.5130619017806	-41.97529586522514	-118.9788402539237	-197.7815217469424	-231.9048752563466	-233.8711938252366	-233.0362686621128	-231.5666594907239	-230.6179426953032	-229.1280183091353	-228.4686119246901	-227.1423148108264	-226.1162831388628	-225.6651789216261	-234.2978729286464	-263.5364341524231	-266.698652827566	-255.6700452143066	-259.1382816574521	-267.2867078977488	-256.4642502974751	-257.0115507385944	-236.65107448652	-220.6176316776195	-216.4457912244917	-216.6875298654258	-225.1517040578042	-236.0344370589978	-241.0467943284031	-240.6616346821593	-217.3377673188267	-237.1172476091762	-255.8397814501631	-244.5325306514153	-232.0879018269147	-215.1942217176191	-207.5798642295113	-200.4518653424098	-191.8027617030907	-182.8652841282463	-174.0468863999914	-166.0173257306846	-157.8361003494177	-150.7021839706572	-144.1642941618901	-134.1869638907568	-93.56920782747255	-48.52995902172835	-27.7516319375634	-13.43693238538433	-6.097727717725067	-7.572048055333683	-3.812942861408317	-2.731299740021142	-11.60907034973124	-11.65726206404409	-10.01732881506538	-26.04235737673121	-25.56433525101627	-18.06148303458783	-14.57096061879612	1.96398651841069	14.73973987897771	27.56166682177404	38.78304031773062	48.58719811638001	64.76761091184416	70.05900089220762	60.14448018083839	54.68766383715305	72.85218681105709	86.36493672387459	59.50499433640081	52.7616940817374	63.01720480091225	62.34774194694076	60.90696608318112	60.15142317233244	61.08654571536655	68.15804995572852	74.12153428657335	71.12259922338662	84.10399630973806	107.8003275721454	127.7970998878118	138.5519662360154	142.8506990548173	134.740180378053	129.8978650939275	92.08678828924516	74.75989175676855	74.2965628702444	63.99244515547427	63.34232665914933	76.93414218522648	86.69197361100991	84.17308740773575	96.20993769187467	102.5055342698624	111.2889174674243	134.1491976597515	151.1724206746003	144.0378875259916	125.2524319122963	129.4569221832795	135.5899265225986	115.6508424101828	104.7099092675107	107.9602307690055	108.8372909721625	121.2534448072449	123.9913493349235	114.6764343827442	84.77330669655701	90.99012729920608	104.8377250179717	127.0920774372825	141.0097641249365	106.2326701248197	93.34006621402946	96.22271431323092	107.5719683440592	101.5741524187181	100.1973155530429	106.4941817941561	109.2777986488174	90.31917824851033	94.81625540060536	103.9271214607571	114.474225954701	98.13089424676269	95.28951271863953	78.51775131915883	64.85242601761112	47.75475424556251	39.5963738038946	29.53694019428244	24.81164463352727	-19.42696225594435
0	0	0	0	0	0	0	0	0	0	0	0	0	0	0	0	0	0	0	0	0	0	0	0	0	0	0	0	0	0	0	0	0	0	0	0	0	0	0	0	0	0	0	4.78520042665934	-70.08535504496606	-148.2299591047348	-221.3473645776548	-234.5602518922209	-234.2599757673267	-233.0808213044691	-231.7309969452462	-230.8072333962179	-230.0760752833704	-229.0572157361753	-228.1236622115786	-226.9679412380491	-225.8785822904749	-231.4575704222955	-275.7079087888594	-278.4384101051905	-267.7877215770155	-260.6324392955925	-275.1099689633634	-277.8647481591354	-257.4114797871862	-240.036391736077	-219.8594829596342	-216.5654676325404	-213.8910143097394	-213.4620117722131	-213.7879879842505	-224.3632216959985	-230.1166837952155	-220.000065283067	-235.6869260965612	-258.0030824692599	-253.2979860424119	-230.2734885274867	-210.0829952076682	-206.9841379926443	-200.3238415079132	-192.7284335040399	-184.2168594598677	-174.7828333657126	-166.4131077959008	-158.82346203059	-151.5312665920434	-144.420263650615	-122.6970178982503	-71.47340220547623	-43.45746547647158	-22.51044182614279	-13.47430325996975	-7.202930885993332	-6.776736245060952	-11.15902575856972	-25.70398710150478	-31.96062554319498	-25.49493718363267	-19.90470077973346	-5.167405259961624	9.24815557024225	-24.25726363695001	-32.62781545416951	-16.45028650899409	5.45330419439693	28.3823850367026	45.3477936767021	61.27761941499844	81.63507165641704	95.56146367914043	81.4740680408671	69.31201794515702	70.84177491142616	80.2076652401018	72.88833867058317	67.09301793601051	77.32567063702739	73.82038234103861	57.68829159772925	69.16463010011128	75.29874278971609	76.27870600908707	68.7334710542618	75.9433022084356	73.27584874432932	92.2567313271237	115.7979862341311	121.7805608903265	119.6208459244578	125.0621711161158	130.6449312937416	89.02874138943419	75.94003655168923	76.9175246787557	66.67562880623787	75.23257528759588	103.3915578614221	123.1914568480003	110.3727125758158	106.9733638607227	113.9966480656744	119.1688000121455	130.0528927985924	147.7651014898861	131.8800148088437	117.3454572890039	117.8787782336559	134.8401168788211	116.6521990539927	125.9212326117043	153.1697706636263	136.287585009264	121.9122771264738	120.5552720920124	101.0562907598749	77.29156092049379	87.72389965254042	98.34718773968576	102.0113181669355	113.837053781244	122.5488687890495	115.9674689854645	109.2171893191487	91.74858332207131	105.1881066191115	110.3128522476628	98.72193955692128	104.2632910880173	106.8394014823919	111.0315756639474	119.0583452129611	136.6258891492918	107.1338172032387	85.03606596210091	65.79563642073553	51.26644936478457	45.72664648386448	26.34259330187505	9.20492126286619	-4.799818455620583	-24.59819537078714
0	0	0	0	0	0	0	0	0	0	0	0	0	0	0	0	0	0	0	0	0	0	0	0	0	0	0	0	0	0	0	0	0	0	0	0	0	0	0	0	0	0	0	6.986758999483164	-67.75780308027581	-145.7520080401023	-219.1662180266466	-235.1751821447621	-233.881814622135	-232.4776330759422	-231.090951549639	-230.1499316398383	-229.1343523154925	-228.2526138438749	-226.9244305260743	-226.0382492732771	-225.2927536722455	-228.0942554442445	-262.6371606722179	-274.805744101472	-266.9084875762925	-259.2183103642225	-261.5851939887767	-269.4639547370848	-257.3107171185779	-243.4479469014905	-225.5879634346272	-215.5252996208969	-214.090707741227	-210.5873558182982	-209.9353233445719	-215.7221521026183	-216.294275291144	-217.6751634935317	-230.7360724865668	-255.6650341467961	-243.029461203859	-215.0470940650707	-206.1691313727829	-205.420635986532	-197.8682721983598	-190.0055695322196	-182.5293234906473	-174.7838132941308	-166.7905263943048	-158.6755342662081	-150.3421292965885	-143.3662101111364	-138.5723289486889	-59.52962775764104	-30.32000837656834	-22.58824455354276	-14.67996226855128	-9.706490269700632	-10.33566086854456	-11.63279786822154	-22.454245637905	-31.67905700932966	-24.09165873813288	-5.092348255310642	5.322637422855847	-31.4984503541784	-42.8820309186303	-28.93746838851217	-11.82028486685194	-5.507548130594609	26.70233341147154	41.77320606331779	52.23115285313305	66.79038407497171	83.73183245250884	89.85367558648865	87.79774355600189	80.48556348595345	85.34517059248294	63.89347130258471	47.84442349116164	56.8408454711392	64.987770102402	60.66078249086092	54.80300287439485	68.46087654637752	81.54662879045017	81.96634604350811	75.70801947044919	82.81765687726485	86.99640293441772	91.08820049638854	93.89226163605977	91.19822418204485	92.63298375419214	101.5988486518951	85.17595503695411	92.07455785549247	89.23050703996797	75.74080195859078	80.35834457280713	89.41521546306568	100.8327745557919	105.1769367200923	109.7376174744713	115.3846176556475	131.221128682708	137.9227858509558	139.1848987317055	119.4948864224027	119.6533183291994	129.7580305996692	148.7316847701493	123.4182222012793	127.6833109746749	158.2108445714584	166.0438914485791	126.186136323269	118.8796133473256	112.3393657894812	119.1599780274948	107.8546200491987	116.9741604992281	96.82241471648545	96.37116885120008	101.1583511644863	116.5024120100656	121.3850189796544	106.5995986948617	100.9089141929232	99.61867541762257	90.78562849467264	92.95432757545632	95.75814813591735	96.26367729032751	109.0336103629043	113.1421042177628	118.4507178416659	97.00556765470355	78.72374061944727	97.81828439502105	76.59017812503866	25.12263934144817	6.589244223755707	10.17216881858567	-22.29277953624726
0	0	0	0	0	0	0	0	0	0	0	0	0	0	0	0	0	0	0	0	0	0	0	0	0	0	0	0	0	0	0	0	0	0	0	0	0	0	0	0	0	0	0	0.7286566455225213	-74.26204056540483	-151.9865852855853	-223.7337834977172	-235.0425470000892	-234.2710519441584	-231.4145962116973	-230.2176213355824	-229.7000982385537	-227.5033444486515	-226.8753920087476	-225.9983583410381	-224.2922615975869	-223.9226728748244	-222.2644679684868	-222.9279671088729	-257.4393971809135	-268.0721998584576	-260.9673486024319	-264.8319750420437	-261.4881990427766	-252.6503492879451	-242.176111827719	-222.0765315904416	-215.3616900545124	-219.7044637477773	-213.9220850074664	-227.6907344033492	-226.993917319949	-222.2356349156503	-215.1739600387725	-210.1814149383752	-229.459418036715	-242.4926427851843	-215.429591576546	-203.3685992527425	-201.29567710143	-194.882492278731	-188.4367622906312	-180.1753517710715	-172.5950708808601	-163.3801246015128	-154.7714746440635	-147.1802343421272	-140.6220334934185	-134.1766068019667	-95.89830335451006	-45.43179717822165	-7.235489504875776	15.73326925176667	24.28744349189531	14.73025478411628	31.80641975024639	9.988501335022052	-3.219455329705791	-11.26759357999938	-16.99094083807224	-39.83588984239249	-36.92736496869411	-27.92523575730114	-34.71470959065702	-27.30059201920871	-11.9955278581739	13.42030695101882	44.66386611935637	46.27812720274638	46.4545674571739	62.53282518024309	72.24568709710476	75.50355274292221	88.43334967236231	83.87129280818286	65.55984642862265	59.54764771056836	50.55402074440747	54.08384195772723	56.75875301698003	58.56915074915498	63.45254656106219	75.29056551310374	92.79975146215652	104.9817870468769	119.0964872706437	111.6212214905797	99.25269416312587	86.223487118043	86.17172459293076	77.42585387118804	81.57307715654788	89.00544430800539	97.76733043087654	95.57730737326611	84.7437235814711	88.15855291879669	86.45772847460935	101.6576945729667	109.6473086627558	109.9360174256918	108.4413260114655	119.2358507299694	131.490187200179	148.3068762071235	126.8627280154727	107.5603324708849	119.6056422317741	121.2438905942054	122.7617448098064	134.0088810689165	148.3896403471764	144.8790618384469	144.210908914198	155.5874076605782	118.6944226344877	104.5588489762362	113.1998500480495	110.7825896515214	109.4621650785291	132.475701184813	145.3214014707795	143.9247044000813	110.6494783402807	116.5502184756196	116.8916853703026	109.5945082262154	113.1600573012896	133.9045035642531	105.9232301102399	79.45468590798386	82.63251870302217	84.10045213065783	87.23521616698633	80.09084154754431	84.4903588520842	57.92489809804482	33.00947462807807	12.42574671420226	6.133445369911957	-7.370799865615137	-40.62814302892982
0	0	0	0	0	0	0	0	0	0	0	0	0	0	0	0	0	0	0	0	0	0	0	0	0	0	0	0	0	0	0	0	0	0	0	0	0	0	0	0	0	0	0	-9.213316549942222	-83.88808739329096	-162.2397956874364	-224.2678571238544	-230.3936263937736	-230.4791433602614	-229.509117359268	-227.4562077318399	-226.5698173173178	-225.297297277301	-224.3630891064537	-224.3754624373875	-222.3078303356314	-221.1953913169488	-220.4910594774995	-220.2332845643244	-237.8873035283052	-265.6209350611016	-262.6519934816513	-267.6380850944176	-258.2729021205642	-252.5417706262316	-242.4916492428122	-220.3829734035544	-211.7896731659561	-220.2575263666209	-211.7265906650426	-231.1013697587059	-222.6753851600473	-217.0756946088926	-209.2024559293533	-206.9729287027786	-225.1706501064365	-240.4892632104761	-217.2394937430917	-201.2024050699313	-196.1045708043403	-188.9438223528551	-180.831170795971	-175.0338100565853	-171.0531355066746	-164.5074560087316	-154.2491205012727	-145.7333686003781	-138.043896930351	-133.5277630695073	-80.82035295706241	-20.55694255095261	-5.118428116042701	10.70798124441709	19.3680833982416	9.605861266666137	1.204759840459315	-2.670288373677196	-24.73179247779795	-31.59663447277403	-21.0802977833322	-12.67136893187314	-22.20837939616391	-15.86381356299746	-32.86410751289009	-28.3777870185555	-14.98113721805623	13.51753474716483	29.96271447518641	49.52579824300193	60.86754048428622	57.45299159949076	67.79561157073952	73.72901768797122	68.62487138391187	81.69923984894446	91.09516346590415	89.44578423840994	81.44142733800426	77.74792304935421	84.40273392269265	75.08079398605042	75.15482614566146	91.58462591656038	80.06014513100848	88.44590289563322	89.53252314713853	89.17016580155058	99.34639509851436	105.0151095633396	88.10465536237994	80.37247366836479	75.97464759115491	90.61394354627542	104.2739769745006	104.7724803779863	101.8176850948964	104.7472309922507	120.5232836226886	113.945957023586	119.3586820485519	121.5384774182319	114.3268026387437	113.242183716353	134.7746086192895	135.6256157746813	129.1796805549737	120.9890495938753	117.7972002273975	115.3002879378362	119.5836992440862	134.1116998826488	127.4022414181632	145.2288917314934	159.9517001413292	124.6759672255428	112.0522387836105	113.2726991525707	122.0753384294445	115.7145366490988	117.0703848784154	139.1810869542965	153.2713078201396	137.8872803162454	122.2517015130513	116.2372854336045	108.837531491034	100.5525946944367	101.3422505233043	73.50437948484949	63.22375024334365	67.41495476214982	76.58840545373548	87.15255859585874	70.42654565895388	65.67749503899265	67.45111128121745	54.21693820423082	35.13358371616574	15.97056420207492	13.9892385373963	-14.91393839417943	-43.09229709929433
0	0	0	0	0	0	0	0	0	0	0	0	0	0	0	0	0	0	0	0	0	0	0	0	0	0	0	0	0	0	0	0	0	0	0	0	0	0	0	0	0	0	0	11.04801650584876	-62.45367090422501	-139.8154572786593	-184.9022952500831	-181.1475152395684	-221.8491831359493	-232.2631309898066	-231.3377486847348	-230.5265164138709	-229.6339097802836	-228.1886662971014	-227.1036447075047	-225.5717782846193	-224.7741728233801	-223.3175352408902	-226.7489481864822	-236.7846790609112	-265.6334318790485	-258.6990085092864	-266.0844411750873	-263.3608214578534	-259.9420884277336	-245.7824382421063	-229.1883280085354	-216.0142249158925	-212.8350371902424	-220.9404610361959	-237.7533836679439	-234.9174612548507	-224.0749795749362	-215.3737904502365	-209.5918946680141	-203.776203139158	-205.5071825776949	-221.8818105439852	-207.3337499687341	-197.9777672783797	-190.9336279544238	-185.3203731594648	-180.0844359514861	-175.0460492004615	-171.3155792299394	-161.2681200091452	-152.5032171289376	-143.2881092683174	-133.5417200939478	-96.9865192661526	-45.70539574534352	-8.752524922407147	10.80821708364958	23.3983095321753	6.064336928313558	4.453751211892886	-1.293531234757017	-25.00870748756933	-35.09592580453504	-25.30329526124385	-8.675698487248583	0.7617423382550058	-32.61746848069796	-37.07740918786597	-37.31760084460802	-23.16862265626073	13.14659108304489	40.68748253724798	55.49552863406497	72.77445984083252	69.4274800574771	91.84138327386761	95.78164237045887	90.6912149266159	93.06396041664992	89.94413126508233	66.49122490672681	71.69519778011967	66.89908981994442	77.30240367927038	81.28271563865886	89.10481864393439	102.4535900668318	118.4956832997993	117.0207368033525	123.5163113658885	90.30974679741291	90.00129933773499	96.61182475125725	90.67917006820674	82.42300710571658	109.7024825760687	102.7502599734409	106.3778779367581	112.2380165900147	113.7281721098136	118.5801141737473	118.7549005192672	124.2564850754345	121.7257958935165	123.880476996159	115.0480299715505	118.3965565915032	147.1099224037494	155.2405210999268	116.8569160119181	106.7626950000591	103.7169199851601	106.0417318119097	121.2589954577507	136.9592281123117	140.4749952738201	116.7439594501201	131.2532136979906	115.0095478283901	114.8008331894261	124.2718873115761	120.9525274330712	114.1576149732034	101.0103985831878	124.3310146666057	133.867582559427	129.4046837779552	133.0047478974688	148.9816969126439	139.1079359010776	94.37444204854395	96.05004199025703	95.29500469193448	94.79503483126111	90.22785969944744	91.47497831821804	82.18504769594914	75.49999749921879	60.29332675681788	53.09821177702752	38.99858151607071	20.25542516973669	4.068407105946442	-0.5460373794828167	-34.85350308248715	-59.92761935908979
0	0	0	0	0	0	0	0	0	0	0	0	0	0	0	0	0	0	0	0	0	0	0	0	0	0	0	0	0	0	0	0	0	0	0	0	0	0	0	0	0	0	0	16.33738295059151	-57.56098477679664	-134.7496333576512	-211.3839690133265	-233.3903372504708	-230.9734903840154	-230.9237732318924	-229.7522903422239	-228.7996336990381	-227.6166700596458	-225.8225155569483	-225.2139966372798	-223.7178580592235	-223.0557920750882	-225.5657273941395	-226.0366879758232	-235.4545510779041	-247.9695806935219	-252.5167219296181	-254.9215509350389	-268.7105437593595	-262.9916668261303	-245.7530096022791	-235.7580338213984	-220.4792780094126	-210.3993221512481	-215.7028299851157	-227.3941214600923	-203.178666035802	-208.8217478997617	-207.0412703962659	-209.5158613621492	-243.9375293028432	-240.9295522218241	-231.7549049658568	-207.8438783892123	-195.9108189932678	-188.067272269108	-182.3982596893079	-177.6050851315968	-181.1478280714946	-177.0853532268657	-164.025314640536	-153.5457135996085	-143.3999426937125	-134.1007319157115	-110.3344649458996	-57.54068309967594	-20.66242578915856	2.831437484640985	24.9074133476982	17.98104912874203	14.0849697476865	23.90192480080805	34.71246494600931	-8.726201340979904	-28.33890348308661	-12.77562624967091	1.449676379435215	-16.12828455868835	-16.73785843456382	-29.84828848196794	-42.48978921037535	-9.304982607119578	24.0386978514137	45.08724999931157	66.5394138819736	86.18544143560018	88.57789444228351	93.74431249753209	92.44350396260012	77.43989076651764	90.38950879713298	89.26228309853691	66.07322348374686	63.27122271725364	71.08552878783102	67.84105393216818	84.24214816713859	101.0831932312871	87.9340772114026	84.61723468782195	105.8601860578166	126.53774172361	122.9593466893251	121.6002048813927	101.8772126171609	100.0207004831703	144.1170844436402	160.4519119307273	131.6881725872115	113.5444855998587	123.7105448581049	126.9188256900847	117.1554592032266	113.4578369372106	109.8758142188285	120.9112494782964	117.7755879182991	116.7830997471062	129.7183308048478	141.5669164806247	117.6415688888876	112.2050119394495	113.2770849810568	112.4013648868699	108.1402926746298	113.5633332588695	120.0970749585639	123.029576199147	129.50526124128	121.9245109643242	125.8225507403592	134.174307489515	138.8688485011598	123.8579999467547	112.3390540425138	111.2974676299626	118.2401330835881	123.0648829460007	135.4399958576474	154.1075495327061	148.3458018209329	101.9758118095357	94.18436589363334	94.97653049085152	79.45846517140095	64.17367717671303	67.47192995017851	65.13366246619472	61.6211678916444	59.40852685220378	49.09342368916878	20.72853191982438	-1.381897493586789	-4.171109097909121	-20.9903610058894	-39.40321808457121	-66.4952019714565
