-9.145436932741376	-8.667328278481222	-8.692640754487968	-7.839557951521186	-6.807607066492835	-6.633140772033926	-5.503225555733906	-5.565413410103872	-4.807655055496923	-3.984507323702559	-4.141687426182216	-3.358723802762739	-2.03133862352351	-2.9005641232024	-1.567312584322877	-0.685233147803757	-0.3095466523075174	0.5995190099160652	1.951734921282423	2.02278533569779	3.014728663994248	4.228359346633397	3.62734225896412	4.864404852000035	6.109956651099765	6.598391024381527	7.787740581022462	8.471795506750539	8.703839404986553	9.664247346126103	10.1722559234056	10.50448661789201	11.82594556944355	12.31039652174303	12.39082118540691	13.84863705683631	13.08110091150942	14.78155419772108	15.39685995647278	14.91681175940366	14.78445717492164	17.26347262719491	17.17909370089282	18.49496743327734	19.07826896982687	19.51259672618048	19.65870247038185	20.55797390804838	19.76214440658183	20.87208517205778	21.59304842426153	21.29609821768022	22.42917510093861	23.62111523532073	24.31241188200769	25.1991728027923	26.06664798612323	25.67820991182799	25.87481900981408	26.48971297178636	26.6339320454004	39.07316872675409	54.40033319133502	41.48707139631495	31.68049081794479	26.51322022087103	27.78849953030044	28.11884742074719	28.17460212692157	27.94265210870111	10.35024990734834	-14.76943702904043	-18.59332605698648	-21.01941694924435	5.227892530238933	29.75536611902194	32.84416643682655	25.86777045616427	11.96564352542947	1.766455696143396	-19.2316914813081	-38.99653951215237	-51.59986397717947	-24.95724151733222	15.70232795454405	44.91081459784741	36.62640231953119	38.26017712168562	37.54046076321455	37.81068411775004	38.42795336352617	38.98867140251096	39.09647575427806	34.44405355340854	15.66713572987115	11.91393436362506	11.66849453666728	11.43722370570637	13.01846016095243	13.9127198530164	13.51974295742858	14.304647237202	14.43544994709183	14.17650439977285	15.23959582356838	15.66027727011922	6.405862604144374	13.58630316489112	14.08508514730758	0.737091298232599	-39.11816284887752	-22.7714310307841	2.384998009277183	26.79684014129097	43.60473223176928	43.74582834230955	36.64853084947228	28.26942013833764	18.52718272358788	12.71755424581201	-34.539901891162	-63.60595365456984	4.225212972434321	45.75973397529503	46.31035143423153	45.89104165543941	43.29850141860754	9.176036855510375	-55.136708657746	-74.79216297943987	-91.55478047190988	-76.78490220880315	-70.80186731522014	-53.38700652135933	-56.14241311291647	-77.08012948706468	-77.93652251356284	-69.63432773536545	-67.97988473108515	-47.26910257872018	-49.64038577667759	-73.88126073399988	-88.32324050364809	-71.52536265067005	-38.13025902091422	-37.48452854100759	-48.88045750233945	-47.32988865027122	-51.00495266599194	-40.08269652097957	-23.11264031642267	-12.326349518114	2.081565414125777	22.25607596281998	33.86372235471225	46.12636241333738	42.9250561591727	16.52065107703254	30.45718290177891	27.29031750386753	25.07896476239208	19.1186756231709
-10.72785678204673	-11.24841704112487	-10.25750777365636	-8.954102694108002	-8.376039639388551	-7.229913940792244	-5.749721975288537	-6.462847240573865	-5.966055062330526	-4.416870679213019	-4.120371322386887	-2.501897246841054	-1.532680911977195	-1.948486337329086	-0.7431542671469913	0.6940034045445884	0.1122928423109215	1.392559469418586	1.3135101287981	1.271365248105752	2.529947750879245	3.469758619811131	3.398952899957976	4.906529137952703	4.728434192439437	5.246475817877837	6.798954278866205	6.754051756490639	7.137898429241261	8.8007701148411	8.935497337787154	9.60159979322529	11.34663917115631	12.34082786435442	11.68228578413755	13.37838486417425	13.25647750897846	13.73285633537594	15.4135350677638	15.7144864579007	16.40104465130912	17.58378027670241	16.69616938420089	18.1354928896298	18.7964516339872	17.93921295907325	17.39931244324148	18.35944924629572	18.25529900297582	20.13190055403629	21.186089328045	20.63521191232152	21.45571834825714	22.60331433627331	22.43757960778214	23.47284837275203	23.75113162769327	22.4151768400562	24.17078927691099	24.71188778093756	24.84754301324529	43.36551737442954	44.24577183226765	31.06437446007308	27.61890249592793	27.87171849001356	28.8919737623911	30.00332272224381	27.3794263646254	21.00807877353915	-3.525490345188985	-7.193662756103606	-7.323848607813602	1.327437230164236	30.66670045053618	31.4448041796654	31.92835690316269	29.57163438203889	9.766624513001176	8.749792707885973	-20.17148769944143	-57.32688580191615	-55.49326002420236	-12.4037694453919	11.41617030977838	35.74023208828058	36.77832820801729	37.14314160924653	37.87089008441058	38.20314084903836	38.21681414800864	38.77252117879507	39.24500333378228	35.21883312403622	13.42557956997541	10.58151693480468	9.718917549955819	10.44399944499042	10.19495651224111	10.46514663058173	10.94585128058341	11.34985273424977	11.51542964507152	13.69075759089031	16.6448903236672	12.42108393949852	-20.76567371449309	-60.83211333274178	-52.74211837759213	-50.53892415429573	-27.6253387220471	19.34322639089086	41.34025925038551	43.21985477472072	41.87598636652604	42.6703964735658	43.35619903189226	36.16330208606271	16.49266174403274	15.57655056429059	-12.32914950464811	-56.32372841001887	27.60437821330609	46.35883768205397	45.66606909896359	46.27854712676725	45.58951349989246	17.21943288304604	-49.09183800857889	-77.4470093643279	-73.24005406831691	-68.3669322828913	-58.57032278012335	-53.28870393134596	-64.57047983460441	-66.3394770036748	-60.25129195169848	-66.75226281416633	-59.26715792366818	-51.7278394430642	-70.48290326738953	-79.09902560798622	-91.19947609527475	-61.27755397205934	-24.10394606443649	-10.17800228852664	-32.30287922454863	-59.67231227420422	-64.88611289067967	-55.26033370513127	-44.10254466712431	-33.94523248853557	-23.72369594186353	3.722585344016125	26.52102195422341	45.54707672901154	42.585540329932	34.49363649583458	22.66248392239507	25.28785141445971	24.13043943895988	30.53879584865572
-12.49169780693913	-12.38309165146794	-10.73575831369004	-9.80033234104539	-9.502795636016884	-8.017752349618092	-7.332001004371051	-7.322437489392684	-6.243691409320036	-4.509821228925063	-4.592665005468831	-2.911702137203292	-3.017357157349892	-2.650087497200758	-1.530556285512205	-1.091606144531369	-0.7717264012039493	0.8794925996735969	1.002244018323921	1.135291444689273	2.39435935487802	2.967614028789143	3.643329381041099	4.885361345713648	4.699808698468388	5.50807023471134	7.417550604215876	7.138298187154788	8.541736062169093	9.728512535150173	9.612355923769456	10.02525193767161	11.47884856380898	11.7960165111007	13.06068730668676	13.17497895817377	12.96830383779943	14.50974182992411	15.24743238806309	14.42339479870842	15.08789858598448	14.52264401468511	14.86808185770505	15.98567237462964	16.33355121337144	17.23780258555107	18.52888654030153	18.98677174948673	19.59336079101243	20.87922786207542	20.65981340360574	21.68945684084807	23.36421211823546	22.67540172242528	23.14684321662506	24.83104204932022	24.84249003484555	24.31925581247313	25.78168243047747	23.78574607925631	29.51594324685189	50.2016549265436	35.38481607584598	27.19569836243406	27.30895197888304	28.09399258668489	29.02709078768029	28.43443383222569	18.3322810278361	-0.5518090644802669	0.2580364306893443	15.87336075528518	10.37462099322568	15.10033527246748	4.666109844935619	7.020406403386289	11.33866143159753	31.22128310906848	9.711105280019126	-2.837469108146308	-22.86837903784166	-60.91968027103468	-18.59720581549578	6.369273431944208	10.26999941555852	34.88860616410966	36.63640847537695	37.31249643668036	37.67827464324671	37.23339539999543	38.45718780237155	39.01654621951303	38.76221015928624	36.22439613188027	16.54785516552013	11.58998947491992	13.60085909418052	31.74083426708987	30.28419490903772	23.69912535120847	32.25770741821387	19.848254694963	20.63098479032146	39.53898350068116	43.13197178861114	43.75531990875152	27.3806730039723	-29.40403042209076	-37.80069368618933	-57.13782340302382	-78.89690412845775	-8.323905033310098	45.59831621598309	45.48507842794723	45.84269913357696	45.37145059948543	46.4324668562316	44.46377827732431	30.82415512631215	19.30989163639612	2.143791668117217	-50.86244763920743	-13.54872162239224	45.63490722828493	47.38798409124664	47.84129088438658	47.45494246929172	13.96231606687857	-52.33135297313771	-84.89595346849495	-82.32034368536253	-75.54667630687106	-63.21644992786429	-53.84675708059538	-61.6767614642701	-62.64879681718082	-54.78058532643425	-64.92792279218355	-57.94196873340934	-67.27914927301575	-86.61513244974532	-91.77031141791193	-91.09747537107185	-80.46376192286925	-65.51334670785812	-44.64249242223568	-57.38110667837861	-61.39915283782889	-57.81655444894946	-57.95337741164155	-44.58432180910444	-35.04667961653524	-33.72164543448099	-11.56150626352354	26.36889935277239	39.42109943095545	48.21135594715227	48.60351306687807	47.89476242783914	32.74775668491739	30.87876943775089	21.09355931431202
-12.11304198613377	-12.17012045798728	-10.90335071047508	-10.60179480507898	-10.27818756473403	-8.688601634867467	-8.892029285887446	-8.608838211937098	-6.864101067737494	-6.833646011294377	-6.120232623016477	-4.084714082429826	-3.747784097289639	-2.951166958965729	-1.95727726269277	-2.147483793347931	-1.615590057784942	0.4315839402113966	1.102325526286222	2.293334738965967	3.056876671936777	3.635339917878895	5.450072638983954	6.894946743045693	5.944221870142457	7.316813345267065	7.942493822935177	7.739625216055714	8.341526573600561	9.562381907840148	10.3550585064292	12.00223583975554	12.25599623275619	10.63762469757228	11.70070160938459	11.23886228987794	11.4867854048033	12.51286854973958	12.40620331812801	12.72370283741921	14.65981863025146	15.14212969532088	15.55729627106948	17.47598926421733	17.26459715557996	17.95640197647779	19.1578174068564	19.42379490847193	20.63417597843622	21.67711357552258	21.28477987212281	22.68615767827441	23.76883054957912	22.98492677784284	23.22073566806648	24.72355634112657	24.9603862795887	25.49440386978887	25.16919380236291	25.24760964212766	29.23150867889544	49.59000410633732	30.95345773460764	25.35551011230896	25.51214339425201	27.4469236048256	26.83426087191296	23.08571295067304	8.095468131052684	0.5444044160313979	2.875617042831891	2.498115968399674	14.045232234347	21.42082654187701	15.62359982032913	0.9316077917268331	14.42506704176597	33.68776911724194	30.49140113079693	24.90111349984883	-6.022840423181719	-20.93413782599359	-3.080441361917337	5.171656834992973	25.85563156539561	35.89158677222861	35.62143928779275	36.63496647722403	37.01913001273857	38.06332373017224	37.90359679730699	37.7529371284578	38.97088366869602	38.04408170375382	21.96057122777248	11.98983452519607	29.27509416604499	40.58371249382375	40.43240074195717	39.77902259051226	40.00552636451854	40.66930494735038	40.90787660528761	42.08587756878239	43.14422859447143	42.69038659259596	21.75742677008429	27.1605626161967	33.39378440065261	12.10057783983035	-28.91725196223339	-78.62995463137929	36.4297404998097	42.82714435497937	44.23123238686793	44.12506462643259	45.0558534413401	45.12903167868853	36.25138039858982	16.93283665249965	1.722898256919763	-45.76584002458193	-52.2912241687481	-39.51387122147909	-3.736165308449927	-13.72534931847247	-36.1630210634996	-60.88281456281743	-79.59898200556037	-79.15818523268814	-80.04912513441099	-72.81834126302695	-61.38672363591201	-57.46081880680592	-59.27620270091145	-93.72289807796869	-90.47396979694398	-81.9593138467028	-72.36003673743608	-81.07837499104076	-95.83703579328198	-90.84854262141081	-92.74870909845868	-82.47863696451248	-71.82425198778853	-60.95270036635014	-62.6644929536337	-67.76799546382065	-69.36670824547485	-61.58258823846197	-47.73219403262294	-35.80521290635363	-33.0365085102832	-31.34035887150753	11.63064403100427	41.03717830182435	47.42151623980192	31.10013123412907	32.10876569621206	44.55200370114463	42.50215409990071	24.19020244466043
-13.02791750811514	-11.79385693766102	-10.45739942346054	-10.24942896115826	-9.380263307832678	-7.671389274554315	-7.372335687653674	-6.19624303466793	-5.259413849658046	-5.260348165020019	-3.849664313029706	-2.837771619704711	-3.292989362449362	-1.661403909529156	-1.849440489708655	-2.033252152873985	-1.009537160914334	-0.4659268129376528	-0.3512066565530745	1.387944443494746	1.715786968487208	2.455908483559284	4.551203030222581	5.09187213120839	5.520703969946567	5.891629871204714	6.176682205481342	6.389166681082912	8.266771451403855	7.820272638084077	8.303905290486227	10.48669399341043	10.06649727681301	11.34552182753245	12.60648938449711	12.76609711173421	13.21462477978883	13.4354471745178	13.83391038980935	14.54983923337241	16.38830094444523	15.81256207008187	16.68067031722228	17.54938839587393	17.34128742818123	18.46478658521707	18.74165085479177	18.78558213207066	20.12881639873217	20.75129753138739	20.19116908359248	21.41105958287434	21.61477969042772	21.07585160737437	22.37797501578189	22.39512070915217	22.95107042080392	22.10443133928371	24.62985691600358	24.60332032180872	25.59823797443056	40.34769100824658	30.83050454909042	26.0728863583474	26.52215843045622	27.82108740810031	28.4053328602393	24.59982020829599	14.18407767235195	-0.6067625286790701	-2.984327804689258	9.024358852979447	9.318191873952514	10.75767859833539	0.4730123639868395	2.84743649345782	23.12411151545803	35.84979846197024	24.94844184254731	11.29329041259635	-8.364399326696486	-5.396270223049356	16.84863227676664	34.70648761607777	35.32731652051291	35.33809038884456	36.22132184343778	37.15346950577216	36.4251374537285	38.71597160872665	38.71131456653285	38.78140995815696	39.70471360622443	40.19828813756899	39.77567258776867	40.34512370780016	41.52313265458071	41.46098709284016	41.89760095527217	41.77531346379666	42.04948099650125	43.32049825804449	42.50405403969961	42.5984949216581	43.86526465823434	43.27966760200189	42.45596764029841	45.21540056388909	37.90815202473519	14.32859796762344	-13.14876167859998	-71.75606512075973	3.63085973780835	28.43742537150251	45.79924405257768	45.36523805149986	45.60669934407244	45.91968483912842	35.24479720054438	17.66361766329038	3.94665094963122	-52.84106187565246	-74.57452905098174	-69.67680641953837	-60.32326422291925	-49.35071741639098	-42.24891567579814	-54.11905236310346	-72.4221285603796	-72.92590302206605	-81.24992643571238	-73.6108284490688	-65.66220942550106	-72.33772226374023	-98.33581014406198	-100.6454456227728	-93.02223209981753	-81.42384975258619	-70.90596527179659	-79.06744482054953	-96.31324970097856	-91.73688154802301	-92.75842003086257	-82.42899402777891	-70.39375837891978	-63.37450880047882	-58.7609341937746	-60.9770528782355	-66.18263911825642	-55.31660248030465	-47.46199218910834	-39.72283721006255	-17.53025996325786	-21.71660970243485	-18.3917034035361	28.48704222580835	46.57547433394242	28.75284976765874	30.87817723958563	31.83568600364674	40.81829837735484	25.38882446624376
-11.67997275450389	-11.21868472889369	-9.371546580813259	-8.461590910752648	-7.584546841625979	-6.436409249616929	-6.084073018046581	-5.801529966979217	-4.353179740758321	-4.424838182059545	-4.491237130831848	-3.610712771462374	-3.570944894837112	-3.088862729800667	-1.544315329517758	-0.7842022988076849	-0.4052496592120463	1.126589819199097	0.6130800806610921	1.785681551517342	3.013271803015783	2.249312246543838	3.684665231890591	5.607539601933439	5.601319620273188	6.838794935165623	8.129904300011589	8.071449090127942	8.967473443364952	9.84537706825256	9.51309181955628	10.68090910654092	10.88810144223237	10.86196948485986	12.15509982042988	12.3338240029446	12.28723370053717	13.08132261900278	13.4286311933468	13.41480093253088	15.14378936624902	15.09997994321955	14.92747768092724	16.64252944907454	16.38334053942881	16.48657089816029	17.85778239844868	18.38074637780838	19.43502185506546	21.29174172513777	20.84250754907802	21.34361908067848	22.43365225504203	22.20777123851047	22.42084436326633	23.04335510093534	24.33945963160852	20.92655650863605	24.48490547091745	22.03303239968864	25.58575177935512	41.02976271734002	29.15001687479082	25.36312599832067	24.40241890475207	25.88115407306785	26.69952389481475	22.59174674516052	12.34392760346489	17.15037305854989	11.90434541892242	3.493111712977424	1.931514110080883	26.88801594545109	31.07101579577795	29.35404112173433	32.33107849769152	37.78585818038567	31.14931138612309	-8.41460742356054	-34.26603789819444	-13.11983693279836	19.93205812713256	34.31473036908744	35.19745414004836	35.18097235826843	34.81510706856264	35.83386463982779	36.24308594494684	36.29471976581428	36.57133438915363	37.00905292901447	36.62003215037922	37.94127651035322	37.75962864699832	38.39134157856145	39.76097577784256	39.17994517059319	39.26914969142433	39.70262394312414	39.45254679556041	40.60233397031516	41.07535081024906	40.63262815780092	35.16629796316113	12.58539624098228	14.92925576761269	36.33487929388201	16.66940886839262	-1.303234500054486	-49.86187802433986	-56.60152899440746	13.50012359596016	21.13680336094811	43.3690572552126	44.54931418272085	44.10416024496905	43.97279311539111	42.07934888078424	19.40859340744728	5.277370137680776	-47.87976767252005	-59.31027176731297	-49.44142512055492	-60.48100066715224	-52.66800397611911	-45.92581897532389	-53.65256616929034	-88.07387184889924	-78.14570516104874	-83.26923164066775	-77.54911656207119	-53.19879924696932	-77.5112198669342	-103.2082739107469	-107.4929520612972	-97.9794351510414	-86.46727481167562	-73.71904064753082	-74.67930344164122	-96.4184278555544	-103.5913642349761	-97.22386900560815	-86.21990665431036	-78.00022351843538	-74.71269322786782	-68.00414269928325	-75.23679006323022	-68.03306935121697	-53.89878294060588	-51.78561860972107	-47.87874276928457	-33.20663374418882	-4.738395844917108	14.62032525354886	3.048545889487968	11.11774014686546	25.68192898903658	32.28184351708421	37.64638066681809	45.78246326534375	22.91460980837761
-12.283101866484	-11.50190712471124	-9.642098580019166	-9.152909259326492	-8.121105184465279	-6.775967854592977	-6.615570026395915	-5.96487465313092	-5.861517992523687	-6.389852039641738	-5.157865576064296	-4.165142580462486	-4.478325962178388	-2.633725078262586	-1.907987322435901	-2.101217290325792	-0.8621612957617231	0.5341893616369759	0.4146029545787258	1.98364453230792	2.12361781604119	2.504006049577981	4.520386385828061	4.91096900264975	5.299963348563097	6.73560044602317	6.982752522715998	7.271523937149567	8.918760349104133	9.012213204911802	9.771315262376731	11.26007384103889	11.3001279417189	12.08746933114688	12.36473747725478	11.28449645728597	11.7413032871616	12.58713635542776	11.99143582872247	12.3947149520809	14.2207880298734	14.43811165123651	15.40110844568025	16.21364629565019	15.92211337231566	17.35111426834635	18.06233087672692	17.69918592616122	18.98992323083846	20.60348876294648	19.93590041728419	21.18802983941796	22.15400640042961	22.52885265338236	23.03360696202037	23.75081303756008	23.2434277032996	19.28007018821702	22.44839659100401	23.6004367520535	25.02073054101868	27.91406486028862	31.96345051511403	35.4565849894141	30.21028129289476	26.56715972258485	26.5560614005515	25.76136763407632	14.47133575348411	16.80020610763256	27.71524163791935	10.43686777094112	-1.121091381187483	24.55943303833448	31.32601602899189	32.14289372496557	35.99030461884726	38.92120231201037	24.77369563686199	-11.88978127133117	-31.59900009608765	4.751807868825466	32.71762649519016	34.39790858549816	35.14081551180237	36.17451587956992	35.89727483703373	36.97249291811195	37.50876598444262	37.01097850651519	37.03578274460153	37.21930307520572	36.48159384507912	36.95173438965082	37.77124787927204	37.27129582708997	39.32497323320823	39.80994577700628	40.73807153434666	41.12279530190568	41.59602928255211	41.4916965662251	42.91523836469653	43.11954987032715	36.51742231868167	15.23600431896224	13.35898008932381	12.24190409979306	11.11167868030412	-11.07790727493574	-51.48377355177493	-33.58040436778745	11.68048888688142	41.12001666793378	43.29411075145882	43.7323493280002	44.27382377341883	44.19736677258109	41.86384460639334	20.40215273414685	13.63213786687888	-13.52327976932682	-71.39141527555719	-75.23334085917583	-63.78855585011647	-52.46038671571219	-48.71375527848522	-60.29059614279268	-54.77799933037278	-49.68066536386476	-67.64879759124312	-52.90373735527618	-52.28827299175799	-90.39135789773388	-93.57162826355443	-107.1151593945463	-96.9484720187161	-85.25926976284694	-72.97132925442156	-64.377814278822	-76.63633713101146	-92.30323427933453	-98.04464599498681	-89.40704187676533	-81.86001013755802	-79.23751125408424	-76.47974319796592	-80.79231395863599	-75.15873297373349	-68.96761741068875	-76.19216502256461	-67.61299145565118	-31.41646417940939	31.91308576296379	34.52103378768462	26.91459172079968	15.25824219550296	19.23090991375309	28.39399768980846	34.08335208390125	45.96647061714319	25.15692348567555
-15.00856823413929	-13.43665581871954	-13.31150916384115	-11.24093894867923	-10.25525984039828	-10.00047507769008	-9.57902963111701	-8.61116165888842	-8.402087480539819	-7.852165970841355	-6.958361584442315	-6.159731569260487	-4.296049880044734	-3.179279188285705	-3.110649939627621	-1.903469689375896	-1.19357722629519	-0.7692566019844662	-0.1358443578959054	0.8103853356459751	1.364667187360084	2.219624307125514	3.586453873385722	4.058081308776224	5.117081488057039	5.503056851609102	5.414287205937512	5.75555626928616	5.591209064348305	5.814340681128186	6.371666034004733	7.191560778264204	7.863774220621679	9.020409767729944	9.018914265376139	9.915450225982312	10.37754219205277	11.28020241507818	11.69591023068321	13.08108116797766	12.86525455420551	13.55456506960928	14.33244805049543	14.12987721011771	14.62738114576811	16.18890366213728	16.52841824309411	18.4986290265993	18.78155599312899	19.78102645853349	20.70334462103969	21.8568421459085	20.29232516530885	21.45485354655804	21.50691546202822	21.27437193304897	22.18309183144021	18.92829809735622	20.38217685226803	22.68384049426916	22.97716100367987	21.79232720572867	23.07335291809096	28.55915059126048	24.56871298076149	24.51553396825446	25.14912402346886	23.8543311829219	24.34491692421111	24.87395898870145	26.06412954522042	2.27553471289059	-7.717771652594081	15.93732328040969	29.14293491692794	29.06250768667263	31.92587679965357	12.34005767730122	-12.38769152131866	-12.74766943455492	-12.15801161387242	21.48062215936028	33.20283999687609	34.09742384738328	33.66395132559316	34.24153393627444	35.36954694108181	35.04504621422006	35.08477155738692	35.08370592506751	34.48821653655966	34.90798135277822	36.48870951494843	34.93671550333133	37.18383016785944	35.88797344751526	36.07368287117504	37.22504468063755	38.1424389222889	37.67300163767348	38.33998395122677	39.67965739805845	39.33178764293612	40.90215049133207	37.94098726389646	38.26786278360643	39.53358806872171	39.17390248857672	27.22588829993811	-10.04629869056328	-1.448784633139582	29.21084097395001	43.77331855148714	43.28449129792287	43.59888214551023	44.11571398202182	43.23273318573345	43.88718561125782	44.55626206814165	25.48340467140659	13.03006443563146	0.3370723955126778	3.943305400061973	13.2503198998742	20.02255092535984	9.108431069495737	-42.43288610760695	-48.42814206238748	-66.30172051402977	-71.91773951325413	-63.84781341284727	-56.07909191332575	-55.71313405487348	-90.40892492963641	-101.7726479881001	-101.9486160358278	-91.276487032506	-82.43502541577644	-73.40287665515623	-64.70118963881717	-71.21052931245316	-93.91357196230683	-96.8431100886136	-88.39326699293238	-78.07317751478948	-70.64516172041073	-73.89804064289979	-78.81275845705525	-78.90764768454969	-77.38863403411571	-72.53830881109238	-67.25639301577658	-55.15590654465896	-17.2315548964217	10.00518322289989	12.89584186457773	13.54674595328299	19.34460607056548	25.71072003550927	33.24670981427241	46.47740703319761	17.55771236846243
-12.31597504909988	-10.61606296910077	-10.23174344262301	-9.868839574824335	-8.204305663833992	-7.929185271298451	-7.619614941832822	-6.465360487423339	-6.669712027000287	-5.976678342764387	-5.564697269869981	-5.685330736043227	-5.045758059330041	-3.345076360259043	-3.42009614749719	-2.230235555323674	-0.9803481851220113	-1.060842758826283	-0.5196057132642409	0.2507459902301434	-0.02194201739573032	1.416152401345187	1.451917411892708	0.5619958866757599	2.237782266566569	3.486617172306211	3.520938145217485	5.465870249873291	4.976838115916991	5.330745557647958	6.718445077981727	7.5382003429512	7.812488913709302	9.54916099764776	9.207221817170705	9.572139959364421	10.89147244788427	10.65521161420619	11.67478825848289	13.09043455497141	13.05537392144211	13.64785957730169	14.17300657565636	13.31674986369811	13.37867512204355	14.15882469392554	13.69630001749357	14.62834376321518	15.2362577225355	14.68972093469165	16.15519701885884	17.20831833327526	17.37321274944856	18.50757028731144	18.8752546567419	18.54407798436691	19.50432789122175	19.24114991518115	19.81981320471797	19.76006993888132	21.23549954004315	20.77337439259728	22.10579967983398	29.14100594996941	24.20960396969872	22.47672475713031	21.99025474909135	22.66177331184855	24.28925808420453	24.11552826374799	20.06620806595416	10.37009086938329	-4.785784523335735	13.56542696384722	21.51094526774585	23.77084924025738	24.94327863150053	3.813260539751184	-11.84622543241292	-5.689738413282839	15.93442987485275	20.73479274995353	24.06998242422543	24.76944043706672	25.2442954209277	24.49333321568901	27.27377067339629	29.06716593138145	29.62738043127231	30.80822972251988	26.23932989365116	27.13443902270365	31.11394745763724	31.4275108304046	32.06997500350371	32.1419114468508	32.54055058811022	32.74100246661837	33.95922828964561	33.26695988724114	30.76262570671605	29.99762260441165	30.59043826048097	32.61108438617055	35.89725713041852	35.80521834605398	36.69077996071016	37.20738710024878	32.69586747016712	10.01069262258324	-22.69582319347163	20.60477208406394	31.61817081336784	35.78262988608839	35.65246585390838	35.64181224526817	32.74851470848887	32.15870613196691	33.74431258862751	36.82446777802525	36.35861603720014	29.60701464530794	-22.54275425253789	-62.71371806465748	-53.94533598791986	-47.72116565893401	-57.96163703289972	-59.41592183936527	-53.34738944870503	8.230639195268196	19.32983485942376	-35.59857571541806	-67.61511472842832	-77.13558964023537	-75.24238522487346	-102.2407019028045	-100.7859842758846	-97.20248310614966	-87.44446268048421	-81.16444140803068	-74.95143270910864	-80.98927669563309	-86.83495133838917	-82.89161113785877	-74.80679187571977	-75.64651383398819	-76.24575562565823	-68.61295795388756	-62.79597306152982	-60.60036496320075	-13.24686155764962	-2.387367003008507	-27.31996183176196	-6.987640593288489	26.5571444047275	23.00352390750385	-0.8510228588002064	3.827291518586549	9.505683856146874	16.06260190626992	31.86898291782046	31.0522913636396
-13.33565819308768	-12.63255173300539	-11.33077075496169	-11.01809816327051	-11.00578976513376	-9.241621253206063	-9.226353089389875	-7.330311959577131	-5.535449592687996	-5.371876495776064	-4.41509459348984	-3.05203957503042	-3.399263222456682	-2.868475480677859	-2.55040797145611	-3.007605943360716	-1.687820513539094	-0.5735206986690571	-0.3962091936347747	-0.1868370578740155	-0.1733280954556733	-0.7385463925155022	0.757589134181103	1.472583739434157	1.00090012557132	2.815331124993634	3.176860056378786	4.543052874360569	5.576396124057624	6.031203318060903	6.827246179782065	8.042543264209598	7.601297357135564	7.893841826718727	10.32905656977562	9.476090087021049	10.08544486505215	11.26576591652179	10.91594153550201	11.70744431644769	11.57461677451744	11.6180723580614	12.65036638010221	13.81960890724986	13.55519721397843	14.72740098900513	15.93172912935313	15.06842614198325	16.19536992141323	16.99831138363157	16.40228062038062	16.95758779707231	17.00198132311297	17.85062752582019	19.23601007797899	19.78147655472455	19.74233736727496	21.38356141809211	20.87939072458212	18.96107007885024	22.55694123231547	21.66029781074317	30.5297396003416	27.41597250089819	21.44429938928275	22.2877745539501	22.19322831546668	21.27278168361815	22.70381171528322	21.98918909984235	15.01368518289067	1.260479099901346	3.822646629253086	15.56426540878576	21.30605830475386	23.56346080163536	16.42994343983707	-29.32310927519242	-23.44028395356955	-3.954893204263158	16.0242189718297	24.65900821217616	25.25867101982192	26.82960523300832	26.20225091701454	25.93595965650928	26.55187441086434	25.47372428380146	21.12392835276816	30.24358444275771	18.90020458078948	24.34987429690611	30.79051533714465	31.97013154090288	32.33146734086978	31.98516154695284	33.29047617126477	32.67089551612852	33.15892642232851	33.7742848742258	29.12403108101972	28.89872411172649	30.31192898493947	29.69812538249604	31.71971975903318	34.45637247016708	34.71314090826263	33.85576109608169	3.476114479043304	-53.06286676542311	-15.50353138405976	29.2297928640964	35.9957689740236	36.32641626777661	36.86363544151436	36.18550175729283	27.26336855133596	32.96871679143345	35.13290193050997	22.57846348334482	24.21626145240316	-25.11401364754974	-70.77796887624461	-61.31103357751198	-59.733841654228	-54.0109715970803	-55.63486915180366	-72.37498299909413	-56.89869628061211	-3.282758839938822	30.33051096654293	-20.86177125677489	-68.78791127174759	-78.69704815784959	-80.8345805972717	-107.3433172844729	-97.31019693177379	-85.61415290457475	-89.3328387432104	-82.504271122273	-15.96721058530173	37.38398556366354	40.84363041514763	5.141795760938322	-56.78447618594885	-63.32164208242898	-62.31112391442716	-59.83518520569442	-55.92198775391637	-61.33008233934012	3.92088428353668	5.91466447913902	1.80696063033102	10.0129412145285	30.65112145179171	24.18235962450265	1.056682161663417	6.093982862912497	17.20730915598656	18.14758094765776	30.12641247472595	27.60473057422786
-12.08460023821752	-11.27208378680436	-10.91693947984226	-9.353039774056356	-9.108995428641379	-8.45208958859493	-7.17125550906232	-7.004762365790299	-5.893544016796056	-4.452068654581353	-4.466919242122742	-3.784019143044787	-2.490108176419284	-2.554285916022963	-1.115521224979261	-0.2501226764542821	-0.4237604171785279	0.2368883348956103	1.104561037917421	0.05767087684196781	1.688676329654697	2.208503860746816	2.628185722230171	3.536616229908844	3.922442976497081	3.644545711592372	5.344299478922721	5.739636479813271	6.456830867214279	7.809321967166994	7.874056227310717	8.385367582715162	10.68709403514225	10.2536925023071	10.52314338807193	11.17968475918647	11.00044391034774	10.64122907086102	12.03865147537249	11.47313794056225	12.20518432807771	13.7229470005835	13.39583391846483	13.98548434136654	14.13119431511319	13.88567086737305	15.59125225204983	16.500386037141	16.17866611794679	17.58923386315189	18.06830484907005	18.43553857274037	19.98485402622677	20.1309981819891	19.45240398909075	20.58147325319749	20.49828745709021	20.04957106758411	21.2449855403222	17.89918479662495	21.25124437064952	22.10791882530953	21.82583902951524	21.35913409985488	21.92228007932138	21.34725283068579	22.39213581608476	23.52113577413229	23.46332856167456	23.94755508103302	21.45219290701945	14.95956212106833	18.49827251868882	17.58367104584988	21.39769988336687	23.95161639100269	9.027342168182145	-40.13462656817543	-73.31991473975768	-29.90363925240257	-20.99373961490392	-20.780003840581	5.769827602365837	24.05589735260165	24.35464367862198	25.06889870825654	24.3838583928484	23.69690816915852	14.29221918086591	24.82495564724888	29.38505718683274	28.94350997542031	29.42079097345854	30.1306090289479	30.55401483833614	29.54415179927383	31.07597168749365	30.863671322209	30.75408953804401	31.43739195747997	26.34898794780415	26.89813478658769	29.01642651357804	28.32802816298735	27.9234480212333	29.08536407650371	28.37941397483931	27.83450257290167	-0.6756987718479479	-13.47854119848901	5.804229105590451	25.56606039746134	32.56041378974263	34.87992571777042	34.71974605874377	34.38734283223209	31.13548227920674	27.56362283084059	33.11399134195833	34.84573634585698	34.34470202940992	3.154912568368957	-54.16172466316962	-52.61000506703115	-64.71892219508101	-72.18304223788564	-60.47443635157052	-65.41589981956801	-49.79545589801069	-51.42482831407793	0.06690235464935768	-9.060279122314967	-67.64247290643578	-77.55638699762284	-72.18107223853889	-113.9589237511802	-115.1206353411517	-105.7564060235985	-97.24100376712633	-87.8206600318621	5.396263551442985	36.36328447609364	35.51529771430731	30.451933664108	-15.9180058790979	-63.3125776931368	-58.3531367363405	-24.22375844860935	6.481230373304328	28.88654676385787	31.64131878088196	-18.60489054963782	-51.1894322608569	28.25666525225046	36.47132765361809	21.01528680943866	-4.176626271071996	2.050092327151589	11.52732630040444	25.80772300488783	23.45652152994066	22.14208394435198
-7.6168931915754	-7.390469747647273	-6.761583923432852	-5.623733728884446	-5.873617720328895	-5.109021215383422	-3.869497578106945	-3.947954318355727	-2.952254230719035	-2.123933881365446	-2.698138590589195	-1.309223755183524	-1.110860127175528	-1.599925333312314	-0.7788363647582912	0.241140759612307	0.6073409158722995	2.318312024978496	2.882714725872489	2.489267153645216	3.826365660960647	3.490130816554057	3.195903646256539	4.547160586692058	4.676025701946827	4.489929919246634	5.886348467654528	5.795248169870121	6.47785092706286	7.874349974147947	8.51218269654251	8.457744237790223	10.14948017409603	9.411839280412806	10.28732607412169	11.27444391681789	10.95817808638918	11.64444325693239	12.81022148622972	12.4494693685408	12.58147228331779	13.75546828862369	13.26775583585223	14.52195645348931	15.73349259499386	15.38555946161901	16.9929969319104	17.05026593155785	15.75648519219789	16.5473110282833	16.50261402939446	16.16317185668925	17.26066827185588	17.72066079137466	17.20123406514472	18.77861983035717	19.34274031560236	19.44471004398906	20.92652402093941	17.88882515207098	20.18576735355543	22.56540658020501	21.6428518633949	22.65693719039015	23.34798955889406	24.19103920786782	23.8256445325145	24.69238695906367	23.06309654490167	22.08111459110404	10.8713745849993	16.95051114243168	21.80790063163025	16.10672135990799	12.48440069250353	15.65384808050331	-11.27947047204816	-60.76512058505622	-52.18082603217232	-57.40474788094863	-71.65177131323262	-74.61176939793884	-10.86840872025928	11.0619547142322	21.40140606584231	20.96198632423645	20.93413411676875	22.40522240027715	17.06554360286532	23.57284896281288	27.81152948056044	28.01683796173748	28.28863116581206	28.35087011626928	28.74743323641258	28.78834610754492	30.0117927794563	29.28683351745164	30.19302252895824	27.87238746081096	10.74316372041551	8.017886415844885	22.82852837510902	24.37786938356683	24.02265682370472	24.26741274229758	26.18794449053411	26.28982356439141	24.77229764689483	26.24707158144824	29.10672776195119	28.95043243947063	30.67949749160971	30.79419554978102	30.5091968251613	31.56528875109012	31.01980358580008	30.51748813932343	32.87810465732829	32.63418685693878	31.64167872663072	7.89778403882471	-53.24981671073107	-61.5488034832986	-60.09261848239868	-76.29094522726493	-68.8843281938573	-64.32437913314527	-46.26895210374917	-44.52632429298322	28.72447849910196	21.56674634563456	-31.80565127848573	-82.59716178854544	-87.22342800596863	-98.18052201935404	-118.4589747689361	-108.4332945365928	-99.93020348175975	-79.94083939632358	-42.7614155310292	17.06940401830295	31.41273276822213	31.64189979302412	-1.988669691172134	-62.90334118036114	-16.45817507997097	20.28535019027493	31.43150505930987	31.94178110397746	25.25060885943148	-5.620852877583076	-17.50030145902679	-1.113951670832108	-0.3773627009568941	3.424961713933158	-3.730296768106086	1.781026151858754	11.90440436175956	22.2139445593225	20.41433482639371	18.82775640051904
-8.418973568296423	-7.89722097534451	-6.807085583341859	-5.406327879905291	-4.859501933930147	-3.714581010146077	-2.263432497566868	-2.314721172954023	-1.405654844903353	-0.228271154341968	0.522872518009649	1.066461424379696	2.603347226480366	2.907246438670938	4.32050324365423	5.135267653783728	5.088544051472638	5.986677570673237	5.926121891621619	5.744364411491659	6.641091782891721	7.573755737699514	6.430713539853031	8.148345916073708	8.524293092117176	9.350496183519169	9.552114233411857	10.37959775803111	10.88624494437857	12.64369161129468	12.57337896778006	12.98303293618227	14.72790063261598	15.76338218590934	16.30913368921065	17.25986583039128	17.14573138504548	17.81660028654829	18.79124521824758	18.56067702135431	19.4496698812151	20.24930155778102	19.55682697953159	20.08654245980216	20.59677951663471	20.63233529883854	21.73023032929916	23.01422361282704	23.81068346658247	25.34881158934786	25.50166004911875	26.40909266763805	27.51722172582507	28.09409394003285	27.95124314914975	28.96690118122001	28.87861442697528	28.86217499478727	30.22848492292417	28.89983892909774	27.26805258134493	31.37282803391477	30.83369701588862	30.82071054698449	32.10625484132646	31.17878346849849	31.93948800949499	33.50967739272829	32.93918839164672	33.42780892528728	34.61514653986765	8.688375653484684	11.01571154410092	11.63851822215895	3.182680840673839	15.97207167218752	-31.95762115635821	-64.14217082750045	-50.57773277319754	-50.60514699333586	-74.61554025815798	-76.61226026533353	-83.93633651793809	-97.16252018053802	-50.2501950984435	-20.96344773829315	-3.667078667995384	10.99924445960448	5.35004461372381	23.15110616682898	42.10440831960275	42.18943413955907	41.69217838472943	42.52031974813806	43.13806645059856	42.90239868335493	42.93065652038283	43.89847557875768	32.74189879869354	-18.1246203545906	-77.82209611017319	-29.01371808115749	15.4986791478691	15.28757364709716	15.87665218432613	16.01300823812176	41.92078330854747	46.58829238368907	45.92547636704566	46.35561147274308	47.29206373979216	33.43923743460601	22.15760762067649	22.59650511709901	26.23592635105922	25.58162713984461	25.04315804987232	25.14153308912452	25.21507007017905	8.219245584378967	-31.28841527900551	-53.80933120202334	-77.81957573728479	-69.59449794312886	-66.47259662722544	-65.38997491976991	-78.04613892508056	-43.07876960799868	-9.133318653772704	4.461346309670603	-23.92245283567593	-29.90939151766653	-5.880250906459167	-49.6386851162128	-88.72093221170076	-88.30909433630677	-117.7464565395024	-112.9087388891108	-98.64149322508968	18.49672842881162	19.2479710801191	17.23702374078871	26.60061379424408	26.43868838248096	9.391149822762287	-52.02789715748224	-46.67564281512463	22.26569641035417	34.3035672646009	26.65937624710833	-16.6139525813704	-27.89047468483028	-0.457115611161214	16.32027934759105	6.193209638351334	11.38843814086491	21.8526892429241	24.72958797768374	-6.692435995861786	12.34556667087833	2.358162611528229	-48.97657150867911
-4.123590746355916	-2.996913531904767	-2.791273192200237	-2.916414751950299	-2.122212296692112	-1.858687145260774	-1.824674068806644	-0.7869664644762793	-0.1720127442420676	0.8617431277356218	2.15109315846945	2.718591745087394	3.650639521307369	5.163019591996004	5.074919399375773	5.204630608416664	6.404882077640423	6.381641929373529	6.989821058777125	8.199259662729588	7.88933732050657	8.507284606991078	10.04341386377945	9.709932414376283	10.9862199874413	11.20958898719792	11.04172160106813	12.11993881769473	13.78126745356155	13.52835486270467	15.20891781891339	15.56219959336116	15.17250857542876	15.98808534000705	16.68265447169102	16.23207514264635	17.47361289690232	18.19183543412629	17.98036801371489	19.79919195421246	19.84386182507373	19.8327556796801	21.03757433392119	21.34105603199674	20.66698902056993	22.48694035274247	21.94106565690302	22.94043982283438	23.78302605081177	23.65432734597218	23.63551810526289	25.04479575475273	24.26605503801821	24.70368970968153	25.29894068155301	24.45414322273086	25.32503575407227	26.2147499068281	25.85481606084301	25.37109545719224	27.11239318784752	26.96360510319394	27.99269967610167	28.30297835024396	27.76584991078852	28.91864193441432	29.4089372080463	28.94177054492522	29.73205695762607	30.0503093046805	28.22278153543959	11.35072999953988	10.77015456734514	14.43058495417989	25.53652395689343	19.84093945734114	-10.45990791935503	-58.65326684065826	-36.11529396980015	-67.96231695814552	-95.03007472389638	-94.71537633481466	-85.9495011591012	-93.42938530152716	-96.67620673407097	-87.57582526556388	-53.03780433539643	-2.008349644756862	0.6721280742306703	-14.62548204355605	2.597893068398292	34.56778213422473	37.90120261519758	38.54838399169051	38.00462582441787	38.72393975270535	38.94241602511383	30.9758606157408	5.999943190582258	-22.0657437380934	-72.87836024923328	-75.73779477407163	-1.784859762296804	7.319360398797528	9.107166919326147	32.82074483372546	39.73447857832087	39.52730084628399	39.76114344216472	39.71361178933026	40.54008662163019	25.8740027546915	11.49664466038612	10.63892291057942	11.17344401131751	14.662160569637	14.65937958045384	39.27715758367989	41.44878437912342	25.62423901707874	-28.55213416719764	-49.55106765328122	-74.53932812435508	-81.1125217424437	-80.96809287183464	-85.90836782239631	-84.51524354768415	-24.26745204337004	9.850519879690779	-3.213673709590807	-38.8534486466182	-41.69813513043061	-20.41621610664006	-9.878292012931695	-63.22319832608144	-70.99698682796833	-92.53895010180608	-98.10758702919281	-70.65792509490848	-18.3265820512743	10.58723379020645	5.361460445887644	30.75907111525765	24.10851812855182	-40.15052345904652	-66.68384532003597	15.18082840063659	24.2122669410077	20.25773353334549	42.09948600966965	31.16215463958619	3.766638029220587	5.383923329703606	12.68719777066522	6.263376609300167	-9.05495343854048	18.49529482098026	21.99836847689281	-17.53010127424071	-6.164588869151913	4.109638218781555	-6.143822721729521
-6.835268585810326	-6.568086042085156	-6.462793168294326	-4.977916913118293	-4.774142420298347	-5.04427401157082	-3.801449429818888	-3.855681009911763	-2.26578320996029	-0.7687327274171594	-0.4745075494629987	0.6270710673030919	1.530784058691182	1.645217369104728	2.670855934995473	4.467293926302091	3.067715362422973	4.47410485730677	4.840685836804823	4.717925102678947	5.363183186997333	7.086604485472094	6.88067056506523	7.863019898764833	8.522400008567729	7.610749684441458	9.757665404519202	11.24175977282968	11.54124359085446	12.76091183121846	13.46139871001077	12.74644464048731	13.7653300986357	14.0169598837995	14.35199518567018	14.72878174107092	15.49362665834181	14.87390336855964	17.52116269445358	16.37227310988155	17.10557792098945	17.51081177622001	18.33471883180459	17.66161355097705	19.28043458915701	19.1754800493606	20.59794943559959	21.53456324232809	20.94019120923647	21.7119056454392	22.44024414956792	22.09002202249545	22.95165605639218	24.52518392814585	23.93187555213436	25.21326905141851	25.97703157020356	25.6794788533702	26.14910454765044	25.62703838119049	24.09881260097939	26.44274275351034	26.48775782713062	26.37404624535662	27.73628327004832	27.90066777074239	27.64281567509786	28.78508728675044	29.14511818464985	28.33532940484801	16.51318896041784	25.82176493079712	15.49652611767203	26.38667438739799	4.2416546911615	1.68884720477098	21.74467838253204	-23.34362254810952	-30.43113265214811	-36.59296826549868	-51.67521272599623	-86.44093900571642	-76.91925855567652	-67.53944770181639	-79.36715660133117	-84.80986052241332	-57.93379722533589	-12.97502816495927	5.569227772560396	5.489275302404764	6.374008823731202	33.49046594485904	36.94442083236581	38.17696487259241	37.27425538005849	37.99248921487433	36.69495261351042	36.21006683332288	29.51938867449741	-4.317563204848	-52.51629904976076	-63.00894986985111	-50.85866688500812	31.57859919051336	37.89003125692369	38.31783005262065	38.10431421678294	39.02347097782189	39.56837884577837	40.37533881736024	40.45850862738558	38.16035304527284	16.88974174750425	22.28603682697329	10.00837962707377	-11.10811354967657	-3.637428886000038	13.49335628655723	32.33699007211135	37.77768536869903	28.95018280002859	28.24104533954065	3.709425883778948	-31.69200059212545	-59.34223399587245	-80.00364679920932	-81.24322478649862	-101.376270575735	-6.467545104303866	-5.440911645749793	-28.0187834217831	-25.76709268278339	-19.49650822310065	-31.36328138810322	-76.46259670144769	-73.43492727077393	-101.0409225796215	-96.23876364225518	-51.33547291629492	5.595643691963033	11.63703038797161	11.02336695786286	7.974448293047971	10.03179482355438	-43.20090205496487	-61.77590993214011	-30.7759156806973	11.94034307424772	17.32742818831778	31.46550058718083	22.42101003738048	13.85060917698019	28.43924856569873	29.7047777864903	-4.554460217081612	-18.1348912089056	15.72065503127652	16.90284570676209	-1.701461292908931	-3.463374798350259	3.220918666648629	-2.082971020185539
-8.661914132577579	-8.216154939933858	-7.750927886728874	-6.792366260905368	-6.028570980514559	-6.227208935268294	-4.521501017162592	-4.882520084849148	-4.577953685473176	-3.277314229994545	-3.041155989074184	-2.284859072938161	-1.179123994958331	-1.688467366887863	-1.246495672436339	-0.1945476859523581	-0.5398911102757609	-0.324600676511551	0.7541666944520671	0.2392986011442417	2.025208524516415	3.405606994975528	3.222405299494653	4.574440205607118	5.271276713925971	5.16585095253717	6.294432829297165	7.562159831383298	7.366523398691896	8.371244220314736	8.399193005171242	8.30684413087539	8.989748692629405	8.665331595927626	8.353469379555406	9.808968123300275	9.90340486786036	9.674229113776647	11.32053042552494	11.70697731017097	12.28262321002973	13.66193928200289	12.98886716980553	13.67858807877315	14.40062752124612	14.12968262468513	13.90016437988086	15.23372141478225	15.09525748541759	16.19280512843713	17.20867679453008	16.70234761948092	17.34083174051057	17.92754474935617	17.38131521346986	18.22235722973699	18.75018289730576	18.41213027639495	19.2499578610099	16.92916479336603	20.68866160659664	23.70195739611242	19.39179909564103	18.5612435011725	20.08100104331299	19.86665059212629	19.84220764769395	20.56169480928571	20.8993753406161	20.71367692031978	20.57405629499797	18.21948128506554	7.196966462037693	16.14261791915928	8.974975743455161	9.388795485257162	22.44336336738604	6.447207067305442	0.5611886607207452	20.50762181515015	-8.793959231388186	-64.18964328871542	-73.75883538896667	-74.17505573986065	-70.18331527744587	-85.24760437081852	-48.21913176168613	13.37028872515441	13.98583391067473	12.9646664568636	13.96965354410159	13.30337494844784	21.01522736502872	28.41883769570265	28.62894136411037	28.03710736458365	28.49850449506215	23.55491367929142	29.1545091666282	16.62682450625141	-42.97000199695606	-56.5950157382301	24.7111871348765	32.70964187647795	32.89921613918537	37.61442751013092	33.53355844191188	33.59429738669093	33.75136218451507	32.95154606793824	26.37601713597894	31.26357369972845	32.71504920502113	32.00266027330454	29.75805675806876	21.17700494493235	21.10002814988056	21.75096332676904	28.60871193053424	35.77217083533702	36.78196188461811	36.84578693940119	36.14874904927444	36.74074694997407	4.876398170143005	-62.33484643766926	-113.0476835345825	-109.4241663131724	-13.27610413479763	13.67853887115047	0.5896496704934862	-20.7993625502865	-22.45710997964818	-33.04224148878382	-76.3290815640859	-91.72724086695749	-103.4643139463412	-97.74122596206391	-85.45390539008324	20.84602508197062	25.07357384903702	38.0242074881894	34.70318333073072	24.64275705208689	-31.24811143378588	-14.96434117411019	23.99484826522891	21.49826990062243	13.24070289422329	18.57343018271601	24.61029940370261	12.12920726868253	23.70897173686882	10.65809065499718	-14.03517931152516	-7.053992864737609	6.792978252771491	-4.476836989025429	-66.34270647020654	-65.56193452101516	-54.05170969222391	-52.31003812487799
-10.42136633124008	-9.355919214634184	-8.247624016588304	-8.164671063117083	-7.071436685510974	-7.915499153733862	-7.58452034156204	-5.848768161075128	-5.564237233963667	-4.504454353002103	-3.200832640518286	-2.987784789248479	-1.695992701469976	-0.8084833229058006	-0.6112426734529777	0.2820026311623565	1.745053646711568	1.181032452009703	1.970957027399862	2.851972325865376	2.269302552179795	3.274118407993797	3.830410852629228	3.469932193767448	4.511578212038415	5.385390938863424	5.148802416703973	6.642631022697714	7.848173881944405	7.865101286834545	8.879198575737064	9.34569776700323	9.87978147347647	10.97023474898776	11.34316460402738	11.52752963792474	13.67656459752416	13.49846042813232	14.40672196702266	15.49313716763334	15.28643737587532	15.77955297516672	16.63244063385287	16.53012671059997	17.16618760822774	17.98272922138466	18.07263781361843	18.08687926723201	18.89529740274023	18.47886770786948	19.81946359336516	20.14459906087401	19.91335291426842	20.49701497925381	22.1412717432392	21.75070735601042	23.35051720477105	23.31432438794201	23.70487831420348	19.45320658453088	22.68831384414565	22.60921244808785	24.04694169553619	24.17198646562395	24.56502547864889	25.5496985602137	25.63846101936699	26.0707832356473	26.67435058001575	26.08413403905229	25.89515409907588	26.84220393870024	20.21049372371897	17.05844846713526	2.90935970626515	15.66007242509301	27.3724632750129	28.78856804345719	28.18877490653213	-2.404892874693047	-62.32274182245467	-72.41337899252522	-65.99230146119007	-57.51787694984077	-61.27570499766662	-78.66316955922844	-44.69086027744734	18.76785972446061	18.64323373369822	18.23109718672509	18.45005679784896	18.93177996853979	28.40759343704488	32.21593914727165	32.71311322937652	32.88712540160046	33.02241278496822	33.74190841548611	34.41899747265026	20.75374161564972	-39.66831506825011	-49.88907792260142	6.307660916925272	35.39183867216141	34.94089598519645	35.88323220649107	24.37734007775981	22.18452841142783	35.4152832991268	26.84800851977968	-1.079690757739485	18.65438107959162	19.7871726591633	28.18159854872491	32.49705252246332	23.25352645065908	22.35267420560334	-9.005843401037367	-7.612674331296375	11.15998855593469	14.24769134213903	34.7860602195845	37.31643935991303	37.00893256182428	-1.158193122946699	-67.77629600661527	-88.85886573369643	-101.7878058530931	-72.59213269658824	-38.3937912230484	-9.005017253890315	-28.09846113223426	-45.8517185019555	-36.77072912819139	-18.73717773280015	-63.15193775395787	-99.43554276418405	-92.01553511067311	-77.49303546589366	-39.47894031412514	-1.535087449422861	2.75906107562065	33.07586742544686	33.94526251086393	6.349408294756302	20.73568792685944	24.29065326965627	11.99809527538608	9.578641770091679	21.99554131768622	27.08911720888293	11.12333256432876	23.84535230993185	17.02326445525833	2.664591061313331	12.56305014284439	2.273093783648875	8.93965586270437	-31.8919021898169	-73.3220830707813	-63.15610294302911	-43.35876364423427
-9.35170652496717	-8.392088998742565	-7.29197161650319	-6.451721762746189	-5.963438891302872	-5.374439890775221	-5.000421477619	-3.268195969720779	-2.518232566937655	-1.724195303415314	-0.798182315377602	0.2030351774408814	0.4197530838919192	1.021299638678443	1.764124204415822	1.474050270599491	1.736665603523704	2.67933415652135	3.146030438796515	4.803009462813691	5.119143693984626	5.132460690802816	5.62477345861771	6.480411118935365	6.28952145181924	8.093529694721013	8.577165289494076	9.168945799140886	9.128585012299169	9.441664326972585	10.2555070000538	11.03068861887346	10.59045216293927	11.00310084387496	11.99860007687235	11.79967214979084	12.8296501288774	14.28811791811117	14.5862595198636	15.33646680302579	16.29524693600848	16.73769004898574	17.17331124328481	17.79651881932912	18.2902583655746	19.88747561769591	20.54337950073696	20.35878480381265	21.44230168203438	22.30476539998386	22.15293222685102	22.09781027873134	22.46355815118545	22.24095484035226	23.40607218823556	23.72830461434958	23.78007771165159	24.40972858042397	23.26897238085229	22.98420208029563	23.3210981822109	23.6266982810593	23.95893415908012	24.19199224401268	24.79954656192993	24.9888039707846	26.22205692220356	26.00111680949141	27.39336960096603	27.33452860825483	24.165700905688	18.60185524850837	16.84441661967418	8.230999367035025	-11.91449404432055	-46.25907775161375	22.69836197074929	21.69141773624463	21.01789204730053	-34.82845134450292	-66.55878251123269	-56.40785983566147	-22.64798995994528	17.07281416925429	-6.891258385872561	-72.90703647456996	-136.2679760506845	-140.8576977325389	19.81053965503745	20.04157654652897	20.59240612010072	22.13510967752021	32.08707637341584	34.86006937685084	35.50659236400355	36.13912699606692	34.26813774923471	15.64051342344757	6.043856528444081	-27.90889210438039	-63.69262827897043	-53.41471555701006	-10.03260307943805	32.13990302910244	38.08475160484386	25.67833591607913	23.26915895608857	24.00070045075071	29.81686998691214	20.98107194755408	55.42571850670967	14.38206079716127	-46.06438712967747	-29.57252299625327	-3.20671248432248	22.01756465238239	25.42114187490424	15.0301952582405	-25.62666303956684	-8.147504647512221	4.916898339514461	30.88226744188296	39.35439555623165	39.22310550038264	35.25529882038512	-12.87359429223105	-72.10370732757221	-73.99318325388597	-63.4175205992411	-60.83997532853837	-45.42876471016302	-30.14786252891753	-37.61537509441413	-30.35969019232243	-57.40738497356975	-96.44203564515092	-86.47546451175992	-76.73220541125551	-72.90326111894319	-15.44776283257497	39.17030010413893	41.8673243821577	38.03065513128604	27.80832409995816	-21.23272919743155	-4.657795207073605	110.5863389856723	121.2575787773266	128.0489653847939	114.2459471828995	91.37164849045689	46.39595679969898	8.086996264821039	-14.40732668916473	13.68554530008424	20.05692101299741	0.4900411035140735	-4.80064317764581	-13.89335329178849	-59.27766155927563	-52.05200188776237	-38.55068060503049
-10.76906533163157	-9.857559695963459	-9.756194222355532	-8.643127377129389	-7.604758311803323	-7.263053668063009	-5.654400976081092	-4.624478507977017	-5.037511064527621	-3.895607100903788	-2.503600529072514	-3.066844690194728	-2.627621584939817	-1.808154275572718	-1.492044361877561	-0.1962026457370882	0.6133981189247493	0.5201130285482236	2.260065271874907	2.445907875081872	2.636557899854949	3.043145825643194	3.47540017188345	3.246385029628925	4.990500209981093	5.247613831898491	6.84329836457141	8.200817739378323	7.317355299713569	7.656856626905295	8.621126600913726	8.475640082884922	8.735005251346081	10.03888325012892	10.08820420417425	10.82636189477137	11.92881087219178	11.05579191032015	12.11121198032794	12.34602755713533	11.93772170075675	12.92282073962744	13.64579337740125	13.36234701644523	14.77411850093515	16.24139605382479	15.7149271785245	16.73997242387998	17.10568541598144	16.78887861993468	18.04761092236913	17.48853095775516	17.57714630767398	18.95628261269732	19.18535992879535	19.35595028506117	21.60423720094022	21.5209280127944	20.77279650304581	17.70921745694517	19.21738823949315	21.81831894059769	22.71769075770001	21.93791603515837	22.18825160672193	23.45442240536394	22.8099700271851	23.2197196199316	23.98362077013468	23.2359113973254	24.05573131485556	25.5036785441265	5.538850980890658	-7.460213083240149	2.854383228640955	0.7035724939080694	22.70087398701071	27.38131924199803	26.70876915806343	13.63352390436083	-14.69466465187216	-2.211274856096651	8.066397624708998	19.97993177463857	23.50989801570287	-4.745626901295509	-66.66571076513191	-105.6048169800161	-29.04578703833758	17.4232639011388	17.42608596003618	18.9261054428531	28.24571559340637	32.14445009721609	32.11024198160175	26.3037449323235	18.77844508566008	11.65489764554144	3.212723588750521	-43.82819203918035	-33.88253105398681	18.6837643607447	19.47918426864049	19.82672552230486	20.57330527453686	20.60546236844246	20.79090773891178	20.45982043899195	20.57059239212055	18.27504461656522	-0.5642646914393197	6.558568568712161	-0.8909330760002376	2.849192308469469	-21.61364892914037	-41.18703820521091	22.73982948491181	21.63623497529014	16.37797556646592	17.10622577002337	11.22812204226139	19.40248772880906	38.13282813901313	37.31170034434561	34.85101705098029	-13.07177585108386	-74.41656092154858	-78.36774691693861	-62.55524499857484	-37.24378585988742	-13.0288412395256	-0.3436472062715268	1.736024938320526	6.643881835649694	-9.427403663164739	-73.46454266251675	-90.50269400895013	-79.25528481476928	-66.38467045622446	-42.92953568656907	-22.98133409394774	8.495315044610919	17.80999071143273	10.91410486062261	-28.52105527170315	-20.69630128455358	-3.296698478917222	14.38252198110101	30.0518518918561	32.33942543210389	18.25833267591298	11.54240440900381	2.467237010341336	-10.81820594475343	23.21000385841083	14.40062351958943	-6.864283521458049	-9.821079252730414	-5.020028316592317	4.60763227064956	7.913633950375498	-18.28512787639454
-13.57537162769614	-12.73144882498059	-12.65071453878394	-11.59115259206737	-9.911148539978399	-9.766394616759158	-8.988540601207717	-7.800602733596349	-7.676888177764198	-6.624980873651083	-6.204762795063573	-5.672719499304748	-4.59987121542872	-3.78224079901733	-3.465448038485164	-2.451098759517834	-1.932033333486231	-1.971740309972517	-0.9753311184471443	-1.201703570670503	-0.1707518984613614	0.5958752702317156	1.243949329028851	1.994676752151122	2.06546934371255	2.204554942022924	2.778720211138932	4.325318930500487	4.423860893226475	5.019806067236431	5.989795403268317	6.019374029945567	7.103541481716604	7.702434376329421	7.685462011316218	8.515109524287794	9.371265347242115	9.347202597895375	10.1132493739776	11.2113584827317	11.25319035325339	12.24846721138093	12.67244263142007	12.49605363815931	13.08768198114299	13.09522194768914	13.00326100157372	14.53205069682394	14.55433011884264	15.41502988912006	16.52873886156593	16.57577148143412	17.21631167048832	17.96615733692084	17.62426857963496	18.47111218301865	19.75936296848809	19.82864284609548	20.84620224473326	18.0278290059747	17.91460310806448	19.76811628688623	21.23678729009612	20.28111649630296	22.10144664413551	22.97942884737287	22.7824655049119	23.50859466095113	23.99242183926441	23.78333307948378	24.19552386800672	23.73789519857394	8.435638166854744	2.514340423156483	10.09969495302391	13.6769296856454	25.49208080422463	23.12208912772013	25.730290201662	26.65056121948169	3.971559168283846	0.3633655003815761	7.684389682862019	20.6765483986421	28.30214816441458	24.4816378822058	-32.69779167833087	-76.02354595442088	-72.89961733464952	-34.13571324586016	16.59201385228678	16.9975942841395	25.57753733557288	31.50172716962112	28.85149659188846	10.71316725435076	17.73850014198931	6.64365706593054	-18.34549747391299	-40.46887570770869	-21.15374061381831	16.80935791771751	17.20321830510738	21.27392514729002	19.5365627507492	18.26986467968985	18.93793463398978	16.75216573258342	5.119807027272316	10.44131806902973	19.33175362804923	18.69027951157554	16.71648621595514	-6.114834975803291	-33.09584976837272	-51.47229490891644	18.70279629581168	21.28684497242767	21.02842474860304	21.41433969218721	21.17528274009376	23.6626886452971	35.44715836101588	31.86520606933007	24.96646164758411	30.42913294152098	-21.99337254549599	-58.48479290039054	-59.47206065430487	0.428248582115657	26.92822026858394	31.41747846308488	31.34421037130187	33.91822305492286	34.0868186695856	-17.18568657168862	-78.96134556703771	-81.21490569203499	-73.15417415891389	-34.10476007672494	20.52490835521809	30.48177270419609	26.22339967176342	6.272446548730301	-46.1256828841872	-39.65900832253544	-3.522239938652348	15.26253814120284	32.62322070765356	24.5086631784564	16.24565063902068	3.561488484282592	-7.609136475078884	-12.73912929350664	13.48537477807034	19.61556531478732	8.882294180728593	7.274931308451102	0.2489546264442311	2.00180094294268	9.994398132010872	-18.56462515689626
-13.15937454531351	-12.18653714464301	-11.03347989562204	-10.73409353688393	-9.497796130181143	-9.184083014897823	-8.861948874745366	-8.256123994945654	-8.009050126302071	-7.445540758302428	-7.441836886135832	-7.53530983722186	-6.66887689143303	-6.449699234290676	-6.331184534514307	-6.932585525813096	-5.446989153262905	-5.78243476129569	-5.012591415201399	-4.625202420715198	-3.782841150858019	-3.118064565445508	-2.349472571003332	-1.748648651212591	-0.7683542356458872	-0.3450239387458396	0.03273528806056447	0.526388370703927	0.8392922721626803	1.105332625234155	1.349634200053316	1.557213438051662	2.012505978053866	2.639366765717483	2.624460850883821	2.392832763821843	2.834539084785632	2.889208092117912	2.580737294454764	3.220157681453884	3.77435074061836	4.62431002183763	5.004885410792838	5.51142916815698	5.808805526072035	6.671142283519202	6.823640826863112	7.154229297332506	7.386351430655395	8.186598460250224	9.235270247790311	9.97718511370141	9.747945480384743	9.537721636666504	10.05301897648513	9.687712372034326	9.301053843499488	9.702500906158321	10.61730409739013	6.553195483757094	4.693370710334193	10.3125092862409	10.63432691505008	10.74716834819452	10.5355583575641	10.77536484479688	11.0975467198212	11.36679395575698	12.55196280718238	13.10176064858467	13.99356934824124	14.07394392534408	14.57363794194771	14.62190195341191	4.549685093152533	11.01966585699347	16.50331587705369	16.72458336554527	14.86633544769552	0.4989541046251702	-21.06483901247279	-11.80800288489195	-2.508318675871067	9.11758699293884	14.20308328521	-17.05572115693195	-66.04970459101074	-60.43859308245155	-62.81074435065545	-45.68272061044971	4.268618597451137	8.675563870415488	13.33810478433591	18.34556166827181	11.85982346069591	10.08908969999564	10.80049000427127	7.563252674612784	-33.37781988793046	-64.20055354505158	-16.0507076860888	13.39491024037494	13.12883177094878	11.9519851075321	1.628228704782543	-14.37765589524051	7.066009821241209	9.90729845205351	-6.652200682388894	9.697060027241946	45.31062883206619	40.41093109148866	13.53397607459428	-5.615615197584475	-41.03118299424116	-26.74528736867259	-9.140932325658298	-2.981203648547336	70.55454907946884	170.5958692457815	107.3076967015021	60.64232529289885	55.01987992209166	37.89267978292256	3.93146928455738	2.606661438248125	6.008222065280563	-9.946828105572337	24.51229206402883	49.54290378603935	52.98629616527901	52.23426611306564	56.21480902288408	50.82180642099482	21.58985458318517	-4.143636519571714	-64.43723914656883	-64.33502164781794	8.019077960933316	70.14567742015623	83.115586941706	85.61747677509359	59.93719673289266	23.32678265330671	41.60306074241674	56.31589233753706	60.06029281481958	28.27424331340563	9.902358295358198	-8.025985172778888	-1.750416034266266	5.320558529840099	-8.597363659595345	0.9623591927048096	16.88054230581906	20.84858589137374	14.3883297811019	18.2952620782014	19.85923276260993	14.9983374797842	-0.5625061993435452	8.993102798384797
-4.553371865502783	-3.854306119141214	-3.611062136158196	-2.045391363492854	-1.06032283315156	-1.312761602348957	-0.7492590666402208	-0.09782734019641737	0.9523212474415743	2.148526458437686	2.181819043164822	2.561708412569473	4.383896004605234	4.950299290404359	5.328136272861485	6.779098472088876	7.281188082857184	7.93547062447935	9.56334866105135	9.315479683936132	9.54493010975547	11.20647232984457	10.93517467913854	12.0348725437234	13.34940999921375	12.98770602682121	13.7588050848946	14.6591674417062	14.34947135852335	15.45694872783653	16.33459238479902	15.88262780619179	17.3018789687667	17.91744643195071	17.3876712662219	18.46928072082851	18.97687631156954	18.12470238141971	19.67367215050172	21.19883547250149	21.61418005006895	22.28162820567944	22.86449675480206	23.10786362258673	24.07358717716829	23.64815266403851	23.00373265946648	24.93012525638274	25.64742728982498	25.90089923394677	27.61475372141352	28.34408426675107	28.07222797892884	29.58626756070043	29.24406587918179	30.1046774571755	31.31098019572114	29.84628825553408	35.71059068100126	34.72698950760005	31.30490190375842	31.01403926434945	32.23148017254725	32.07765709979881	32.45069003211376	33.49673573508095	33.1980606925204	33.63459597410044	34.78851664408603	34.56490659204036	35.30300923852094	-2.113276538056013	-47.36085513788522	-32.29250863200025	34.28183518181089	36.03374947758137	36.06615100222506	32.14242533695015	-3.209439024555081	-8.152475215739088	9.297862922319254	28.39187836945915	37.48896468012198	15.11180105634401	-33.86052472924501	-85.27495203077747	-90.04781084021805	-52.55435658320239	-51.00903030175775	37.31113267077046	39.82846914065642	40.41180073064292	41.12956405034278	42.17176823094101	40.2971637762079	-0.2383783209539416	-46.32241792097115	-39.64936493987899	-45.94988085823954	-49.47078074947146	-63.62278085266338	-94.70069511849879	-66.1715167263673	-59.904936873503	-66.89526769540592	-62.0274400550676	-62.29159396541469	-79.85523124910476	-82.7513439748312	-72.57753462110091	-66.34409519038424	-37.2740265924525	-12.62342827736121	-44.61201023762149	-65.80623082121627	-57.21416941632815	-52.57171203969473	-40.931650546173	-33.11015030747527	38.11623442448141	49.25260335768108	48.19301880672258	48.65982212408461	41.3977674517763	-9.808947273536972	-61.90240225061542	-56.03622528773643	-45.78210906750316	-36.35440904619256	-4.007475376255428	0.6493046676585692	-9.161815872073831	-11.30705876463755	-27.07980676751254	-30.22646706905584	-51.47961373622145	-63.37685918650685	-69.00877692312444	-52.42325449164105	27.9412344849587	48.35250285395942	43.65731876120482	22.86259733269402	-32.50973743621878	-41.67096864826357	-10.33082963860649	27.5036591988971	41.0679571925203	38.65549439509732	1.582040067524389	-8.80300264477826	10.46544930871455	43.76486395628449	45.98916879241182	27.91074055780734	11.01678187702284	10.99880333970786	16.67120718331059	12.35779097852324	-1.68458596456324	-25.22677258038074	-75.78857893712679
-9.591267272516404	-8.615253633159185	-7.736221166670646	-6.825514923623672	-6.465184420784865	-5.271861385641373	-3.483028329276436	-3.430886740626505	-2.817402802347132	-2.446023709210095	-1.955651480290754	-1.26070834122207	0.1432235239421544	-0.02671790418926889	1.894085032820357	2.732967191504926	3.068815074090864	3.437888596507577	3.936029767278498	3.866164430290311	4.365133963315742	5.279096394397754	4.917509383867483	5.482760390929499	5.234318402823305	5.603085842155238	6.592876409211883	7.15946102120941	7.997527492457522	9.448347898309819	9.70958349108524	10.21349735287819	11.15132587637268	12.04732884886575	12.04354672846566	13.17424400659377	13.31815846997829	14.18417171738106	15.41370106107081	15.52992256181503	16.31315095930491	16.77444470841294	16.71765540605924	16.93764534532063	17.68532873257674	16.8554600064395	17.52872787913361	18.45352275411825	18.95368876216068	18.94416986325109	19.9094737207903	20.02950335035668	20.88254520164432	20.84962347390302	20.78372344623311	21.71615831168	23.12984930293783	20.64276289432816	22.74596270604364	22.23636197064405	22.61109865352961	22.79959608688183	23.28954397882171	23.41764157966011	23.68385121250965	24.22709798975323	25.09142844517081	26.50857711871831	27.10376508617701	26.71443059370638	20.68223730753502	-17.09960309704455	-58.2052745989058	-0.6394825791648771	27.2839103355912	27.83026434859191	28.61877786065291	32.17037494240105	27.11390271073374	3.088140742350461	8.231475697571227	20.62914661058167	29.90468715013448	33.61261277280299	18.97250236230002	-42.02959529354872	-72.67498485559277	-53.96819436110701	-46.1709975780943	-3.963865949976977	30.12223983369894	35.07262764755021	35.01426104418917	31.45787669606143	-7.263595360788798	-44.77831447085057	-61.07435156773194	-61.81590532414144	-65.53303990545209	-63.86354229128258	-43.74048509329116	25.73662566187625	37.24053178532404	17.8139359640452	-43.4994128485604	-53.41765958372622	-68.40362412945868	-70.13650226358702	-56.35681070539889	-65.91804774185917	-72.53871814861812	-57.11226204647956	-40.75108855219617	-39.63640041557383	-78.76378071264084	-75.42721289369325	-52.52039313829511	-36.05122777068031	-40.06880317767509	-11.2740432536724	40.22410199729555	41.35153333856066	39.64508364547932	40.29895934918437	38.2020105709173	26.16354766301909	-10.03989509480601	38.1914150105639	36.18170073117285	33.65616227293417	32.11494302576409	30.84384942495596	53.65873571528947	83.41058043229526	80.99335844916135	42.22795977893277	-24.34152032875615	-74.76193854363638	-1.606247570013139	36.21675594366114	33.88326583361354	29.54447110072607	0.3700321992277082	-33.89912278361835	-13.32666818926339	5.458265856953659	36.36512620913511	40.13475426005357	30.88108115900644	4.971654467113709	-2.071636376063154	2.824414294729365	29.1509903962926	27.11849606680518	18.65241450600027	15.27948956479386	9.29912074683206	14.32372946162717	23.09338805861	14.84787145188508	-35.31565625939776	-63.15343352868069
-9.177962584979241	-8.64977983016351	-8.218321827637538	-6.043529325019932	-6.408429342725611	-5.294797279577836	-4.78172528011396	-4.579284672760707	-3.188176921532488	-1.959797765369757	-1.371829098815937	-1.371436425013002	-0.6661266281799669	-0.4059800954014747	0.9992391184346445	1.496790900425367	1.450685754255829	2.676305786535437	2.914560499519325	2.557487314389363	4.038237389385785	4.375518336115391	4.780382315852165	5.159825732839295	5.780783891939649	6.131734793190873	7.361792429357138	7.593891463698327	8.291361887755812	9.941050037920036	9.750578793472414	10.13759846632703	10.79965283154013	11.15262322131551	11.81298620899017	13.44772136435083	13.57504358675405	14.49854642528729	15.27223507629378	15.24249941288807	16.2273731972615	16.87933219655559	16.07386990038398	17.5290091109942	17.60164630118163	17.85218073251048	18.32252753533604	19.40478934763487	19.26704715875664	20.39754401421399	19.96947573671764	20.08047086248158	21.74155719701815	21.87482218847441	21.59398637872337	22.88830429548528	23.36285664417792	23.26636693976079	23.20148431290747	22.68013516572847	22.15590675154735	23.57154661250638	22.98504634736534	23.5464601404484	24.61942177825304	24.45481089972435	25.8990678661379	27.06892285206348	26.25607824549132	25.96995921039337	26.72486538930383	26.5148823278715	27.24943178617738	26.79478476777439	27.93246869027263	28.4368492715779	26.40586535620423	14.7272994046437	-20.94922766796955	-17.00462893594116	34.62344179935391	33.0202788470277	24.1804031059859	-22.60492423448423	-4.657738417801767	36.13020893935612	33.52641905046909	22.10000548699895	12.87703535640799	2.253284716496353	-11.38789962627715	-12.74698373324949	-30.19959781987174	-52.18541731478757	-33.97025514411516	-12.41390105646528	-14.65696889838432	-41.82700665440876	-50.02040166759909	-62.5547933732789	-45.43750017921445	-20.16677006344969	-3.778535604147663	33.28947522562257	24.76181245127052	13.53066814125555	22.74381866046105	29.51919568736744	19.36652566600574	-2.49363590525661	-19.28576710925554	-24.11362323293415	-31.00685161171629	-50.20331213744026	-58.99596354340261	-57.7291786671023	-38.97594591230148	-36.29376854039754	11.69233491732751	12.63836247183315	-1.565344734273481	-20.56441107672947	-29.37015402192583	-29.02867467109255	-58.46890342739542	-79.63537324028616	-67.53811560687532	27.88295050822941	42.32015097306297	42.65061701636898	33.98291207811855	18.75568034930049	16.28758154728024	11.7169754544083	-2.83635140690842	-32.4276121742254	-71.61226871458246	-71.33435778226726	-55.06568390413415	-15.19703754611854	27.09122220381107	27.2562143278511	33.86311308364748	39.53689800008976	42.74894669880223	27.20348386159449	20.0724511116384	14.99695899751634	6.351823311713844	-1.695736166237026	-4.003182492957137	-9.372691560871431	2.094573845705838	13.75775707954364	16.56376063083803	26.04011190571526	27.43573835083893	6.55210484786474	-6.226727158012153	16.49349170511047	8.496666156764121	15.86321502539542
-14.44042749107464	-12.76207390518709	-12.28912761607626	-11.21950926103946	-11.07932147865952	-11.44449354398711	-10.54304216284638	-8.61845572022699	-8.334652037804545	-7.506554268751728	-6.118792000331609	-5.426853746166444	-4.03406552543683	-3.449803351100201	-3.515960962149904	-1.839365095460209	-1.115517769911094	-0.6792447351674298	-0.1609209144055512	1.002643697890761	0.7882922161874717	3.439456173353392	2.525237883488586	2.939259571228462	3.894796220827146	4.938067892976932	4.743251243235761	6.802644854401734	6.193431610838815	6.868410328900438	7.382145616174626	7.281951396863548	8.414085483239319	9.39918450685991	9.190564861943216	10.14561950655542	11.11174534941904	11.9270253936406	13.36636114653768	14.35452627927384	14.62232364997206	16.12645571262792	16.5190867339897	16.33298901367348	18.21464229178787	18.77979887445508	19.08909135051076	19.62562498385276	20.08493961530195	20.10910027847402	20.47669174738368	20.31373486385581	20.06490589554636	21.33658787304037	21.28854492375251	22.07207455928614	23.41094215274254	23.67770705986715	24.23791261743764	24.07180975585842	23.92485163526709	24.07114147913757	25.35139491597855	25.29048044039979	26.46008598665657	27.00394444669931	26.94000970765262	27.81169650267648	29.18646926331732	28.73496936000504	30.33500667065587	29.08437110454025	28.53917143141214	30.60489120627631	31.65728048437867	31.70273644039341	32.35041826527771	20.65824871302954	-29.03646826015475	-37.47079972261412	38.88923745916779	31.24064960865744	-12.55938402131514	-26.42174524944633	20.79683979106596	30.6886434613067	40.80213300369027	42.14356856693482	20.23017059765539	11.27347390573735	0.9751587126366985	11.48856828756061	-2.552198031457664	-17.2195518440208	5.991753382256007	8.55000907879068	-2.915346394833392	-10.28126837079344	-17.31054060545853	-25.46158107997385	-32.9403202397786	-11.36724747014068	22.15944039829364	33.15963145014831	39.38235351818332	37.16706202922742	36.9250283320676	35.75027061412175	30.71109682372017	13.24881797122805	-3.51964988192114	11.42173212913102	0.9713856322723018	-2.900585125645307	-34.85177660221197	-44.44744172342584	-32.16041410802879	-13.55606765383661	5.018467961566813	10.72205775048377	-14.34358068317974	-24.12115379347651	-37.96355418615889	-67.76927922799163	-82.56485142361848	-70.07097402456927	-65.33043462837861	19.95600388179847	42.76487234983102	46.2633731739779	43.42419843872514	27.15767041811239	17.13593126745533	12.55591916395079	5.614343839284118	-24.10858516001773	-60.44200194609914	-62.12838823016091	-54.22287595053703	-36.39969387819986	-9.100610204644312	-4.88217193392768	11.40316597227545	44.91382964003844	36.53431791695601	6.549822685562646	-37.82125816195966	-41.90048515156175	-41.68161198282644	-37.17865433780196	3.197307276690083	-5.878321016455715	11.54826094597104	28.56164773131599	25.49434832748111	39.30315653630538	30.55459518728713	-22.8743250174754	-31.12493854049319	-5.2249933038905	9.190669309067914	18.78106792093453
-12.73454667128976	-11.41887947115831	-10.67134921237525	-10.20603360963813	-9.401034202455435	-7.612490774740536	-7.737798755181387	-6.846690486191449	-6.00386571307223	-6.203367712931936	-4.486317923935275	-4.029702102193056	-3.469915628368341	-2.534018805891691	-2.039993281540063	-1.987644887129591	0.2113786848253767	0.2535753047927187	0.3399110022938601	1.739114782462877	2.158638449704711	1.993362284567496	3.80347827905095	3.236917060214438	3.585309580346944	5.215374322311135	5.061275698861607	5.266107245275975	6.941849400770053	6.854613273709532	7.332789617143817	8.363913130097359	7.937227011217033	9.167716595708953	10.01549540801386	9.850398758919511	10.58752968064019	11.58626211722324	11.29646400566088	13.08610552076848	13.88457246289343	13.59575750973403	14.59191119093535	15.38302836374817	15.21138918184286	16.51434091131495	16.92170365574893	17.04491450889626	18.43688169413664	19.29849321292372	19.32994301369584	21.43256621241733	21.52749103549559	22.26875792461772	22.792265101597	22.52029255551111	22.08778655237938	21.78719105696834	20.42179270962549	20.39528987481165	23.55574864865011	22.95396531643615	23.21598352319501	24.138420248241	23.83323150033627	23.77989139209549	25.03451032052612	24.39316651113086	25.46118518061908	26.15714861284454	26.43384725948707	25.18621069716286	26.96439541933364	26.24796873047637	28.93105555940363	27.88903976462623	28.08199948451806	11.62895997096274	-42.74427890269618	-44.45588183180087	-40.02325574168566	-47.21441692775008	-55.07027148402781	-38.76981131834407	12.28708941556795	32.68081036378433	35.4135616213652	40.69800510200571	15.62676301928025	6.688825562458447	32.54356104988727	23.53075748974067	4.152238641424219	5.301589944660009	5.520476099723908	8.669981841106676	3.252365522908832	14.72590707493319	14.34786649809843	-0.2231962483725738	5.179010499486367	29.90326592099353	39.66140446719842	31.05542511155352	31.76019916449917	30.21359525302745	35.29884485210192	26.79915071036743	26.84376886681059	28.42995261832706	35.73396909250525	26.93651099568646	17.86329618769093	13.87258098216986	-0.6023662137811527	-5.172042218999962	2.340036018446995	-9.880776696268157	2.638259992022512	-12.20430659191072	-31.73166168348021	-25.6598486528639	-39.9029108743814	-58.25097392378299	-59.72570552089729	-50.43132946287071	-37.32602418467036	-50.58143410254823	6.360815776793146	45.9006968604468	45.40860986094492	37.55541496575057	32.41331103291608	-5.324580498389537	-20.47501696620265	-42.43576992617309	-51.29831302201151	-41.81812506552012	-38.10086150386218	-34.14641270593521	-20.0379721667162	-8.715424958587391	28.62622872341612	27.58505140833572	-6.56104471677483	-48.25470800005451	-32.81382665636977	-28.31954807291666	-37.13320193063777	-40.08577289406958	-26.58236728251538	-7.451098480905586	28.87217030020281	46.98839286495306	42.87288814949912	29.30440090206571	-27.06776968293974	-59.26670178777454	-48.04245492802576	-9.730460679624741	-10.02973703793415	-10.28784464726562
-12.84548521267698	-11.76785408760767	-11.09147012640196	-10.53848310429404	-9.09624813570457	-8.382906542852339	-7.852767171983032	-6.817926237629564	-7.176632677191066	-6.718880524089059	-5.2666694305519	-5.551861260671217	-5.306000977871861	-4.451194531955281	-4.397488311041911	-3.410422393072082	-1.809246327609458	-1.360257690097171	-0.7065054564513673	0.4338655021646787	0.1424542588078168	0.7534662366498708	1.772752300500628	2.461385416286163	4.273455541507332	5.507118562424097	4.94014949508059	6.257439527847282	7.028037087103172	6.634496240790838	8.068250588870143	8.046326708540363	7.654480476572587	9.203729781244078	9.238398234347244	9.558112157786269	10.09660535940694	9.782459281859985	10.33831478537627	11.12903291795254	11.21740239241009	12.01960442216506	14.41982162935423	14.15763350610482	15.23337301886397	16.86955222152662	17.04172026806503	17.28534730029213	18.34911619188003	17.58118460356096	19.12927249326938	19.27360806290142	19.38709821822965	20.1389191492602	20.91492281866465	20.31184538496518	21.10094854941565	20.18410107162475	16.87778944216464	19.6041653622911	19.5846273286418	19.91187876565422	20.77922669924203	21.28084838904689	21.9413788573537	22.62835241884866	23.10706124062042	23.53270795411407	25.28407490541949	25.36746813976259	24.56231283848913	25.59607910745174	25.27162623659598	23.17269765873036	27.35873149631905	26.01848452502645	25.02509075899022	3.559102333981798	-31.57863190330215	-29.58400066921462	-23.80983024397369	-26.92777791680476	-20.15757232529688	-24.10610794234654	14.96907068041591	29.13388002770873	29.75236879861833	32.02176949621503	26.03535309244759	28.59382852701015	20.59037801792795	-11.96880024836892	9.594012646274393	1.994368685290539	6.26980546255723	13.74647595110321	37.87972839274929	41.54290443301619	31.13157352370698	19.04716864765467	12.20239879416306	12.67312639423488	18.81079093755113	28.76061196254028	29.26145239522114	21.44828307712032	20.4365057382328	17.33397495352756	30.98490270596085	21.01957434317248	23.79800849444513	32.56831189285876	30.59571867129998	20.10192342458683	12.29635620711255	-1.510264155425489	-4.129322193211806	9.483999081363407	18.54247779382334	-6.313419819024574	-36.26655473521316	-30.19471276402351	-40.2851229698361	-40.08261632197372	-26.69432106577665	-16.43790757603597	-28.77089694790516	-64.48976559012877	-25.51029673800514	30.45875991385154	32.86383789863234	28.75969792111107	8.535096392153207	-43.50096147233339	-56.62356097082127	-45.95630780963126	-31.48264613789598	-18.25798919015449	-26.15631027913582	3.190505798786546	0.9766522783702669	24.72791165466586	42.67769017069659	29.64420042633691	4.393183778592032	-14.57816783606333	-8.668483098315789	-13.59799498882666	-10.75460995436384	-15.19734684155603	-32.93871684788661	-14.62921297056732	-3.071511298614155	22.93334590001277	41.32230652608607	29.9329799623419	-24.88709386604137	-68.73894130764745	-57.73884527450193	-26.13473107106222	-20.96747860024288	-16.66055061495965
-14.28364325302675	-14.13940899310137	-13.73551193575409	-11.98141759180669	-11.42653050254546	-11.67358108121869	-9.92418633320122	-10.60649546898176	-9.237393377788777	-7.258703330931354	-6.802343076605524	-6.273750128254591	-4.618878793301548	-4.937213560626361	-3.468748316431657	-1.805530254080765	-2.052483297588083	-1.172640666735731	0.5098405251158908	0.7707429789560933	1.77815901320804	2.521960517685471	2.444640241205093	3.877176857803846	3.521222085344533	2.907273285048831	4.709061923985701	5.955245621544208	6.202049287594463	7.108174644021972	7.602139398882684	7.821961558234165	9.253638396354887	9.475000373902219	9.299441729030377	10.46807597905212	10.11450642353202	10.6806707015881	12.3197645460306	12.61949876190488	12.76270294260416	14.36506240514939	14.16691873082365	14.30729681623902	15.40331650947971	15.01201004251223	16.54320046811247	18.06879771873363	17.65277009988156	17.96155369082473	18.40509213105483	18.42794139161893	19.32137473779855	19.4658931522863	19.11396566913396	20.0377045339068	20.59106897607882	19.8094655479216	18.71400101411919	19.29308504846136	20.94916877005534	22.50788446461252	21.97642625350434	21.75668718173986	23.59203963924639	24.46192183405788	24.69888605964476	26.06458319483198	26.05152382868866	25.71840331480965	27.3486602483388	24.4449365830381	10.09258461216291	11.30143331160778	25.33819938759765	29.02035926350487	27.61439143652277	-4.286508703581717	-10.25065043064416	-1.959585961858124	-0.4375676118212084	-9.721418625781496	2.052982023022849	-0.5678575093905067	-6.523637227172543	32.14248079571658	32.12344203016735	36.26538659442394	34.1025960093738	25.87106465742249	10.69610637105299	6.550537449434103	8.647304356972597	8.715771792760876	12.66001172899394	20.47272433127176	33.04268111255391	38.07269220744058	26.85720188696661	19.57192971506296	28.64420418863457	10.20361392801325	14.02541747559843	21.47356151712711	18.96721032249141	35.85627669547443	24.72638266805615	19.1386451049369	32.80727104566401	33.86194090358489	37.48793916855175	35.1921953217369	37.10212905985486	34.24176321496395	26.40442131824921	20.30627858396591	26.2521740342479	38.86873884548618	31.15118055697249	-15.90708336430558	-35.63172072353819	-29.59410943678722	-39.25663449561577	-28.55049545620841	-19.02057178697672	-12.71585511733184	-51.82060920991168	-71.77614951003949	-42.93565782753231	-13.64349028218328	-14.55923445454445	-27.49952310615043	-43.24630618495348	-58.05701862312284	-50.54636941313186	-36.54789501915803	2.497085557220032	-2.544360408956322	-30.49930261550824	3.67583809316389	10.0983074671507	21.81782784037969	24.36047135713855	27.96499908679152	15.8777219163803	-10.24517817200254	-0.9971042828602776	10.1617763884104	13.00554899878961	6.888548012739022	9.328259409047092	-1.606745115730689	9.562989977654297	30.88955670729791	39.46537364517729	11.41658806527909	-54.63190207618899	-70.87901666604253	-36.98825927693539	-21.28794894775055	-17.47241609589679	-5.797897185744318
-15.08371869089015	-13.59472319070724	-12.71268196448275	-12.11434055858211	-11.08066157909693	-10.2721043985496	-9.82029281272321	-9.018850379068653	-10.16930297784333	-9.157062264990032	-8.730076419878344	-8.150574524339333	-7.4288919581237	-5.653720359124094	-5.722001602865532	-4.428007113199527	-2.988990575690394	-2.69208695355951	-1.816530369421884	-0.7573285730152577	-1.117250991621688	0.351543213846611	0.7534031639583532	1.632773720788805	2.575337034587307	3.269463545363976	3.021694182508156	4.361411931351739	4.756714066769973	5.337533432903371	6.752766761024787	7.564600130495677	7.937661481786705	8.703433820365518	8.613854453999551	9.615806262491333	10.17381910402787	9.36302248761632	9.834737018167544	11.79777205012115	12.26237035157965	12.53110696189563	14.18052674590641	14.05417834461355	15.28823365828205	15.58885349522288	14.74477546019784	15.9778114802339	16.86766551663442	16.92483661302725	17.89637894383705	18.61025036638384	18.5677158190544	19.96521913954192	20.65236695816867	20.75064630575076	21.75535229640266	22.17493533510211	18.38295182127519	22.73097056945281	22.70537681682123	22.90366555655197	23.53942179109228	23.11108514744245	23.01662060251587	24.19007050015156	23.54473877201855	23.41399191615744	22.29943109190882	23.7989542123924	25.2075020339137	25.05154406536954	3.586922505962519	25.21538214066695	28.1882463030756	28.93466162081819	21.16936988582603	1.687287278897486	-12.40170222328177	0.02411130027658714	13.97153556194812	28.08109831565605	28.34220590541079	17.01601797998697	-18.11256516796146	29.38493828832387	37.52972139963208	35.79886971929514	35.16562030451695	35.56248118384411	32.54747866852418	28.19447421972447	26.6006136533357	31.84302122929412	19.77147916109834	28.9338635318301	36.48807946848464	31.77316571299471	-8.382166236190812	1.678973370925036	20.60864760637355	12.58115459276104	14.70351946498027	17.55069554699475	22.16645836842559	15.97364088228196	12.22291286700525	27.49862209947048	38.04801454811238	35.28359466866328	33.52558322506738	23.49715797570687	32.69034901844833	40.41481402725307	43.25453287165431	43.27522380668844	35.8377375760073	42.15207281854347	25.1780530961106	-20.87200678245134	-21.61026268283962	-18.10124602311333	-28.47588381004763	-14.99614581220675	-5.027537099255085	-15.47223505014799	-61.76127289454149	-71.60261785729625	-44.50535496335633	-23.14608586229875	-31.9015321972104	-64.93240005937261	-75.60754888019787	-79.36588978169489	-58.9976903923835	-51.29815063678262	-20.36607130450315	-33.81260457676589	-46.42149417350606	-16.78887087215168	18.90175891710848	21.49683295296904	28.04156567100239	27.64713277926737	17.26571779443779	23.05849095475202	46.9497923620651	45.6256847945771	42.0062801980811	44.64936045588655	38.03470096066724	26.70799678425166	48.72549313212429	28.09760805381535	-10.97286703449444	-54.13335790991977	-63.07508956272943	-52.27857822709421	-24.19984244097523	2.698867239081267	8.570962625295607	3.152407015552797
-15.92879508255044	-14.31837579450502	-14.65223006711511	-13.81259344040316	-13.15461013680135	-12.36465110868428	-10.97491925249611	-10.0382967339095	-9.744924599898411	-8.371001427727265	-7.60777804860669	-6.897293658190705	-4.839647526525084	-3.404712935722898	-3.204184882314138	-1.908703254529001	-2.441433008137608	-1.920737463556918	-0.4141085922403533	0.07854650756726755	0.5094819696083448	1.590826654159173	1.76334334436001	2.533824578780496	3.9101482497733	4.230388850717759	4.403333521728513	5.725226826478206	5.81833261357275	6.625723026927574	7.921796869683021	8.171991106351612	9.133886494892806	10.68257212277197	10.02909326878944	10.85149780447804	10.6884742561117	11.18115583041987	12.80773578090395	13.50133232562317	13.61090422849963	14.74115518765652	15.7236611103165	15.37429992479252	16.82633397298864	17.08348879014278	16.68318337248928	18.54742211329358	17.88656503817501	19.16221905547263	19.90829407905298	20.10276610092606	20.20238687115548	21.73726689679455	21.26864910124507	21.83905406766857	23.04656254829524	23.32754556802635	21.82152236297739	23.45040590685872	22.39201725294501	22.70669178315237	21.39408194745351	19.5763716490257	24.28711215104198	25.33823806657179	25.56294778317888	19.41504056045781	-0.6161312903558098	-19.46354504329116	0.2767283407446826	8.189767693320391	21.59529795667672	35.68352864908906	34.48271409653788	35.8201585895502	35.76030870735542	36.24888676725135	38.1957159670674	36.35963674792944	31.81045058711967	39.1639896744885	37.27283236776071	16.063620728579	-11.80167413003528	35.3046313218405	34.38095144884915	43.17007466580725	41.57094278104802	36.8108009378262	29.05860658245675	34.40152281127402	33.06652449865297	34.67034826647659	20.11243862725541	37.06325766856403	38.13607045011068	29.01244850937596	11.80254645374427	7.960955546047273	9.888477030197862	8.020301674845427	1.232244606976934	10.49359520530697	14.71215563062177	4.077367911766856	14.13669388280192	15.10503944470773	35.8373960399407	40.7428333586133	22.08781494087847	19.08351465510697	18.16788958344642	21.57813664924095	19.02336877781005	24.62572109477682	29.8886339828004	31.05262009804082	2.185077763275615	-12.98754326939613	-8.821970025146527	-8.660705842255993	-12.35662459641546	16.28876368113245	25.13732186817282	6.272667845685049	-5.815263932361944	-26.53329051401442	-62.34873761157843	-52.89816884960581	-45.54003286591293	-45.46556576307657	-56.22854925704209	-58.94104646844664	-33.10201719309438	-48.41003720225865	-48.40176635577592	-28.37798628283451	-30.59174667801963	-19.79900684433591	-17.83380121343177	-10.73371800075776	-12.55920910180637	-11.10144006811657	8.352552812579574	45.3494416719372	50.91121808463768	49.4940436784394	51.22927783733297	54.64965384690055	18.57270312697503	-12.18013310613242	0.2019632506321898	-2.641434835589479	-47.84015820722988	-64.36903255803736	-54.05636181315944	-46.48779673820576	-42.96216537123686	-27.26590705690586	-25.12539907458307	-53.94846091626948
-15.51842176739154	-15.05119069163942	-13.4471546457502	-13.03205569159124	-11.09489541055615	-9.769273847702721	-8.807762930764852	-8.050445150484904	-7.059881821212088	-6.780964989893874	-6.09022123945897	-4.895032346118796	-4.216635508146709	-2.853341620899101	-2.953670553407648	-3.214663376551357	-2.989037474724825	-2.173907425583309	-1.931501726413217	-0.3987025413282481	0.3894445189145301	1.01240697889375	1.693653149844323	2.727954050341651	3.690397065905643	5.148950814459766	5.796525475822619	5.693765258010245	7.369150486628683	8.060271158096583	8.688640580682801	9.558459528587633	10.11267282159054	10.37291613131364	11.14309317009091	10.39772148077941	10.57285585118066	11.43559969663445	12.57299138027858	12.55980826943983	13.51977006478796	13.35641323921314	14.91617518959131	15.4551793396181	15.12307451779512	16.03337399643084	17.07739226663858	17.5727793458949	18.81965130395443	19.56484519880382	20.31058222616983	20.98698110839536	21.28913109753853	21.42241321972071	22.32920571089599	23.19275270358651	23.69425523699164	24.90933242291547	24.60776108844081	24.94665193309342	25.38948862036477	21.26708511337526	-2.621793030616317	-7.488240313136771	2.74743723519029	13.09797406383933	25.59725225666307	22.82602011399999	6.007473460726175	-16.97643412290839	-14.481689774253	7.843651955057368	28.7607858714575	29.4563060342594	30.16974367655015	31.10286473894823	32.20684259306631	32.31215187161766	30.02877218903606	23.26889458330066	32.06834414723915	33.54757081692512	29.31696400921439	2.599838280038625	-0.2758305185002143	35.73509121176764	37.59202122001972	35.84513998499932	36.44308181823934	34.04025283964813	29.59019966126195	39.42667897314976	5.272834618185328	-19.34187748875709	-20.90953992277718	32.86036315724536	39.24284568579384	31.50167448120521	29.08616666230736	14.89251230751532	5.564216755242597	0.06060672021314417	-7.834017847558215	-6.564045772327631	-13.55551130039933	-12.93941929990947	18.75628969437517	6.178468126681878	36.99624919483838	36.42955272857651	26.35665237930908	34.90439555953225	30.63699625648312	26.48316671986197	30.7493848080307	28.11034557304447	35.64073222668176	32.11724042170354	-4.210846853985743	0.4755069908619873	-8.326782896813398	-19.18017145476534	47.2277471162015	46.43853704528377	36.71735696816913	26.6901966421616	23.78425738508346	-6.596053875351032	-58.87456928159916	-34.42880821879461	-24.26442326036528	-28.57510532199339	-35.1870917687358	-11.59098437466045	-24.61825223686358	-38.9478721610763	-26.18922740887928	-17.48714222814721	-3.719352251760711	-21.00613176090482	5.318277338083675	-4.007698709167869	-26.53162055563254	-14.51656130679783	-7.401105793945504	44.99709220406885	61.20082949995597	60.30620757057142	49.82116167890263	38.52113031377175	25.34987264458218	-22.47921205801737	-41.12427853083921	-38.40657241152232	-66.96554787608261	-60.57329354662275	-55.62483316694863	-48.53486455850535	-39.90236247846835	-51.39504667455412	-65.58843476373099	-59.38234974800389
-14.98820699804313	-13.91062358873646	-12.83288538328111	-12.21723420008962	-10.79687826926863	-10.69411586180468	-8.960852902176242	-8.420078385186258	-7.444421329974205	-6.717521232957722	-5.596685851554128	-4.539181259184659	-3.549273227098752	-3.415361656904594	-3.007836824035081	-2.803731419487008	-1.666266317882474	-1.831153278287559	-0.6706416382545228	-0.7424703489847957	1.012930917881931	1.637522525641458	3.111640605346935	3.206032825001444	3.916925980552378	3.830596345981405	4.908262638312948	6.032326880792624	6.651873165095566	7.813774818588286	8.282501149008397	9.230094299035812	9.919047182079879	10.40115823728374	10.85474796759289	11.7118331715034	11.6020933820302	11.94254280892113	12.69779244788438	13.27390553913068	13.9183783361203	14.75753873447147	15.40122577804814	15.74868100133094	16.26357061681495	17.06505608370736	17.4807952330622	19.06285588092834	19.65554875746346	20.31834440679867	20.9887888548665	20.87008109114925	21.90904174305444	22.77810291688354	24.11640846871066	24.56396886470174	25.29470123038266	25.12719740204315	25.54093149229789	24.1985306168356	25.33309685757388	18.17219122140696	-13.83075279364513	-9.058424414179456	1.93699194682543	9.575186211692767	12.86876721636781	26.15745554639219	13.42043846120677	2.671473004801669	-5.469352128382667	13.2702489013231	30.28439502059044	32.23341479489221	32.008624571002	32.97805529393034	33.8787941108651	33.78945518272712	20.8642422416205	6.247288508504823	3.611723335503058	6.497325194325356	19.11297405647994	14.88427866188766	-1.62581755764063	20.29676341434103	32.51324806334463	10.26779469703982	32.98137729129968	37.32741810199107	45.11979808901887	39.16131391647312	-8.934905634973205	-2.858561365635467	-0.5536947897911659	18.24790144669007	25.40368788120156	28.44194445225864	34.84625980764952	6.082517125762024	0.999091050354167	-2.889273670904259	-6.547683326899431	-3.965374233804368	3.190301768006236	-14.17203244709739	14.33559377070259	22.10226859498425	4.701845267294544	7.6359213306485	25.49179630546939	25.25022781612478	37.86654530266227	59.6942198739589	43.46490137619381	12.5726989008063	6.088309340511785	-7.512534721381343	-6.612809219590162	-3.202080845795535	-7.731924927872313	-14.9176511787237	14.13918788212138	33.31134924986443	46.56189893941507	48.20513155783246	34.59451524959391	-5.74198287431301	-46.17320329847422	-17.10112862015237	-14.40339648358886	-15.69053287478198	-44.38894105611706	-37.44058973959162	-31.62078920955901	-42.06205615800781	20.02511823221573	35.2393658816834	27.40758490646712	-9.420602072022604	-15.57683631121509	-19.43688142455028	-21.17737858251172	-15.96722475132611	4.322253229980788	48.4192176029164	57.26474278442586	38.63712322407812	8.869853262563737	0.04290076610598703	-20.92446273847449	-36.40534268838061	-42.30439858717324	-64.12977305075738	-82.39907663442317	-63.61358123074297	-55.1415491229267	-43.61411843204607	-46.12579827545039	-57.70391626240087	-72.88920415754779	-96.37267783757696
