-219.8997490219305	-219.5259248728519	-219.1085047787561	-218.823550369974	-218.0574308969348	-217.3311603676207	-216.9091543471018	-216.228547431635	-215.3926089333336	-215.3187879684003	-214.0313284034056	-212.5675507875008	-211.6825277580332	-210.5473627483227	-210.1006855108313	-209.5332312162655	-209.0594282388032	-208.249454917968	-207.9101838124498	-206.2040131572653	-209.5997553111984	-212.957649491242	-212.2750401237398	-211.3397690362017	-210.252268610174	-209.3202909707652	-208.4891977838656	-207.4026014997636	-206.549484304874	-205.7703185085069	-204.3298544144862	-202.3199365382641	-203.636330127081	-200.7625728220504	-198.4279805447106	-201.8480055792481	-199.8185182180342	-199.433067693111	-199.7660735397442	-198.622642301313	-197.9224644186545	-197.5852609819664	-194.8309882557164	-194.6648084519733	-194.2426734800649	-192.1180496374695	-191.5091322835112	-191.4783247590429	-191.1336288019706	-190.7065862662655	-189.5492682971755	-187.773216364334	-189.0535702631127	-188.2277077595832	-186.4659931461634	-185.6478173312023	-184.8476606201602	-184.5592185950648	-182.8660305286134	-181.9618900851169	-180.4848067609057	-180.7733125205959	-178.5153840675556	-178.265371038702	-177.6060766752838	-177.4982822069424	-176.4167891370211	-176.2932359195748	-175.4023344853904	-174.8469586376319	-173.9547024727588	-173.0579893328519	-172.2256688844532	-171.7089799357154	-169.5629798064767	-169.1698440751852	-169.0108974068476	-168.3716883339787	-168.4263281502884	-168.4503546103138	-166.3375513117469	-165.8829932175032	-165.3570701635243	-164.9460442797029	-164.3552749810532	-162.8472551809844	-161.7892698011311	-163.0151780517843	-162.5434412609522	-159.4037832265738	-159.9724647826387	-158.4123234238533	-158.0037520630302	-157.8869799100268	-159.17896018465	-155.35972684592	-149.5235351815464	-121.9127971776355	-110.0330288885315	-105.3451775085857	-140.0582527076166	-150.0791051974888	-150.9249240401783	-154.2874041466449	-162.365313443991	-156.2700035969121	-147.0442698206959	-151.8857719688145	-162.8209683661447	-176.1798224314953	-185.3931546413308	-143.6851483791532	-142.8497923854039	-142.4283036526424	-141.9456519419074	-139.4450088122138	-139.725958316925	-138.4959814276062	-139.2886456182639	-154.6753729291611	-144.5095894529995	-142.9835505490115	-147.6854813456002	-152.8808483392376	-140.1876843297797	-140.9251276817756	-134.7681375689656	-130.735188794199	-128.0568047017123	-133.2741971855397	-135.3826739426621	-135.6887467353087	-136.2259093109639	-127.5505800841146	-126.3700745801302	-129.7279702423736	-134.2869072879138	-146.5760858629719	-120.4710420875209	80.01774914842926	84.60432922169768	92.31655164729644	101.6252782412922	111.4490781861586	110.5981561292885	98.09119347952827	52.50718414108603	15.35049345267494	-47.32027606215341	-108.9630954954601	-115.9583481959805	-118.1672558524493	-113.3631510894574	-111.2655240354433	-111.5611991959443	-110.8508178493245	-115.9897367428009	-111.539240404749	-102.1031498574201	-90.64713213809165	-105.7734473057899
-218.6035711572522	-217.8271163044624	-217.677147320787	-216.5893252573858	-216.49716058676	-215.777155316331	-214.9740920113279	-214.3565200922808	-213.2140567303701	-212.3588718666504	-212.281692236793	-210.7800666469988	-210.4669534049309	-209.667829787204	-208.9717857600058	-207.8879656362757	-207.1791984053232	-205.655935661707	-205.6346868442533	-205.1955673439408	-209.5371071689469	-212.4558166318833	-211.4960032787621	-210.336617640842	-209.5986570010887	-208.3763668003382	-207.7330890888037	-207.3617831973181	-205.7291770864879	-204.9239171612653	-204.8272317810111	-203.3190178127582	-202.38374820742	-201.0694860220279	-197.1485945224522	-198.7177135658998	-197.8321080318801	-197.4240539588146	-196.4759307161327	-195.5055240804821	-193.8668468789509	-194.1032962967191	-191.4149014262552	-190.7840252811015	-189.1682095304915	-189.4143480888634	-188.0455098217565	-187.3103268245749	-187.0224673040316	-187.3995849012395	-187.1383353151094	-185.6487866899226	-184.524536600115	-185.6073221483302	-183.480114831347	-183.3431921709996	-183.1737826537219	-181.6160958179347	-180.4598761589545	-179.9354382692536	-179.3524831283616	-178.7508003920088	-177.7092200004073	-176.1174321920226	-175.8236942667624	-175.5944779843998	-175.3354887530839	-174.4143622989833	-173.9041965119094	-172.0394675247555	-172.1871761536166	-170.8408791822572	-170.7317285010273	-170.1363747581543	-169.2688535448484	-169.2800915843249	-168.849238312733	-166.6032578729108	-166.4201557931584	-165.7213356055884	-164.7938786758081	-163.5334173815946	-163.3519946343042	-161.1610423471597	-161.8257615621322	-160.2471490284647	-158.3507721095117	-157.2513888870605	-159.1746321610057	-156.7655726795856	-152.2785845805325	-154.3497943861176	-154.8288947459445	-153.3686032641533	-155.6958334546982	-147.4957271527945	-145.7972431861782	-133.2268557214303	-125.2058465952081	-132.0698608719138	-149.2959997138455	-152.5606961299482	-152.7394701860563	-150.2862322550668	-153.9804272120727	-152.9528625025195	-152.6250888214563	-151.8982357875902	-150.2082774346733	-152.2336324226268	-177.356515717393	-149.580048498502	-143.4302277865029	-140.3849295607698	-140.1474470496864	-138.3600918605738	-137.0595222376564	-136.5790019303462	-137.5993320222941	-147.7189360790508	-134.0266893128989	-134.4273160823748	-135.2288304885053	-140.9415326700274	-141.9216906986766	-132.7278627570382	-131.2343744445752	-130.5287717103626	-128.2466241113127	-129.4694315998207	-133.8379044788135	-132.2611002289974	-135.6769928902746	-131.8202346972284	-127.1595105394533	-124.0409723711391	-126.5591187991943	-137.5314531966725	-28.11250712867477	37.19834643378776	69.25021771912009	72.48527013765893	93.3945585831043	103.2939892589552	105.1611075523128	88.20681157904062	47.56421800030592	19.22578655519792	-46.71349011161993	-107.084350826258	-115.5742553661457	-115.7852583764052	-110.5837535930722	-106.5046906156953	-104.0384078435779	-107.4259475033851	-107.035458981076	-106.1219539987491	-104.3092176189223	-95.87802153400985	-105.1470918702646
-222.5061189511354	-221.4840443099309	-220.7028760615284	-220.7640390395019	-220.5533591488159	-220.2219036832554	-219.5206927072819	-218.5854868365384	-218.3026000965864	-217.2137434576702	-216.811306922143	-215.757649565934	-214.1643765932714	-213.5075352706516	-212.4366340010598	-211.3933105424015	-210.7140583576234	-211.1002188562883	-209.5314881492087	-209.3919820144735	-212.736443017021	-216.2410764672053	-215.8054431010063	-215.1094642906028	-213.4766640115886	-211.7477593746725	-211.3072821792715	-209.7816938640464	-209.2354261345395	-207.2541191625661	-206.5901736559301	-204.5057870934279	-204.4226001074643	-202.3718639287966	-200.9135096822463	-202.6882068843991	-201.7330431922958	-201.548973236023	-200.1116736387423	-198.2412618972553	-197.9366090520921	-197.2712435979728	-197.0487446454581	-196.1231612163238	-194.2687661267206	-193.6199983468372	-192.8463863534137	-191.8509216466224	-190.9843060574421	-190.0932119372735	-189.4869417922976	-189.2340873862776	-188.6238138194307	-187.3630946224383	-187.3644508353269	-186.6827441275505	-186.6719581590369	-185.6137800931995	-183.6603740517331	-182.9115637088714	-182.8729405444455	-181.0173181933431	-180.3368402292658	-180.6443344515955	-178.8070543239857	-177.8988452418236	-178.0636688326782	-176.8323994650657	-176.1775620766811	-177.2823716328863	-174.618840665379	-175.1224195561942	-175.0224392456107	-174.7708121010897	-174.6375712252397	-173.5228798424466	-171.6073869916645	-171.7879041148293	-170.0752755147755	-168.9575485866319	-168.8057075845104	-167.1853073896771	-165.5874484905915	-165.885965028259	-164.0378351975409	-163.5536331057332	-163.3850625135866	-162.6617637950283	-162.5226445144613	-163.1338874400286	-160.8530945716673	-162.4099424823233	-159.563828205021	-161.487523549929	-159.5668637503715	-145.7902664713516	-129.802179543675	-113.251803788008	-108.5708001714995	-127.7992354178798	-143.1074268860311	-158.6520662897509	-155.2853885932292	-176.0061501073679	-155.5466396615592	-155.6216878879916	-157.0405800449851	-157.1791168209999	-155.5002023393755	-155.3054101491838	-155.6200085555297	-151.8454057373318	-145.779029914075	-144.7483644423766	-142.7088663031854	-141.8727351188998	-141.5168648569458	-140.6313260219206	-141.8727988534946	-152.0352236647323	-136.6791097101193	-137.4195248728709	-138.1003911733164	-141.5886848520435	-136.1364585483151	-135.9577482268018	-135.3823508230887	-134.1450755815697	-132.0116682224961	-133.6079130059145	-134.9094519875522	-136.6272475363814	-138.319337292723	-136.3497856479836	-132.9167128079183	-128.9601062200778	-128.7330850757347	-134.7121415397675	-1.829916558614893	33.60464907512285	48.20949668167601	61.35063188911911	82.49113758676273	90.83695006549216	96.38379556284463	69.69431148222381	48.79697253219642	-2.23816479986448	-72.56225708153205	-98.98480585728997	-104.5913929029328	-115.8154196617265	-114.168861603443	-109.3388568797796	-104.4080344026014	-110.5486195271596	-111.0527127413325	-111.7331269708151	-105.8638036925643	-90.77307466174153	-113.4376835103322
-227.1850578632136	-226.283887748273	-225.8457361244809	-224.7690854015616	-224.0420411639111	-223.2866424425908	-223.5449217001651	-221.6449282135092	-221.6327222975123	-220.3129048269768	-219.5393580503479	-217.855922859095	-216.6436419541219	-216.3423477738828	-215.7560991848615	-214.828449569097	-214.2103618444923	-212.9069493622086	-211.6161978312843	-211.7372313089377	-214.937148179364	-219.2479456966966	-218.3372168747416	-217.3706876739723	-216.1121621327997	-216.2220242699711	-214.5619678173968	-214.5845728477391	-213.758194538652	-212.1817771430042	-211.2098216084809	-210.1878121840711	-208.3292832390076	-207.3556483720222	-203.7598181277326	-206.3791069110758	-204.960085802693	-203.6168895934787	-203.0260565602342	-202.1332831076035	-202.3780639708872	-201.914529674181	-200.9961808626522	-200.4225265259959	-199.5356314780822	-198.9537109127053	-197.7283836844044	-196.6301625066577	-195.6642128460408	-194.5658612347049	-194.1093673874202	-193.1243003127744	-192.4982679968226	-192.2783525186956	-191.077503821383	-189.7118315332158	-189.1381771965596	-188.6555907026192	-187.8744861888115	-187.6120730757769	-186.4714832145122	-185.5697320772194	-184.8914492511616	-183.7595139549857	-182.9671076671067	-183.3203292378785	-182.5074493230821	-181.0713769873005	-182.3578671935749	-180.5105125533931	-180.514968046227	-179.4653808108835	-179.0331698442033	-178.2631744184825	-176.5497706278925	-175.0252821049771	-174.3025629265712	-173.5552377479873	-172.6213880901325	-172.4949934955197	-170.7655078362513	-169.9258875534525	-168.8570539526907	-168.9356550122311	-167.4455890992868	-166.7221614293392	-166.0947714182989	-166.2762579001841	-164.2158977977074	-166.0043512969298	-165.7080951140765	-166.4882302691639	-160.1229495718716	-158.9667299128914	-155.2442471712102	-127.9345439625599	-113.623044462699	-118.3933076380721	-108.5496150886405	-127.7789559591464	-141.0055370251674	-160.4042874129509	-158.4987386411516	-160.8530308370725	-158.2492429000555	-159.0642542182767	-160.5979160762382	-160.9052813471785	-157.6524039929045	-157.4490861890135	-157.4658795136334	-153.9629891305058	-148.7224743285787	-148.211211713595	-146.9556579831781	-145.9302246770497	-145.6067138028362	-143.8982175760428	-146.0940151745891	-176.7764686526621	-153.9186179949523	-142.2089054622729	-141.5669187468322	-139.7062598805438	-139.2513149321318	-139.8259371453086	-137.5378459247471	-136.9082607756873	-137.0404048236275	-136.2839077921975	-141.8831327510453	-142.8001905664803	-142.9532588301009	-142.3872274474181	-133.4858449527462	-131.8112584947661	-133.1673068591241	-106.0312107578065	20.0051480019489	33.65160220286418	47.13491362758676	60.28534815706561	74.04179492874154	84.01995413332244	95.76422119176212	63.53544935096775	52.6132340601707	-2.086064412764304	-69.79480759836491	-97.60382689098074	-109.4893431512124	-110.0630612224634	-116.0777038233716	-108.5553630597682	-102.0656902198986	-110.9068776131174	-115.8135461610805	-116.7960949781333	-114.6892960712729	-112.9355260492002	-124.4885537505562
-220.4809581313659	-219.1311098090983	-218.4293178107726	-217.7199043406732	-216.2512814133667	-215.909363098866	-214.7183947459414	-214.1380897784317	-214.0862276046938	-212.5847947008837	-211.7098476661881	-211.4168197146695	-209.7853756485439	-209.5484741598127	-209.5473121151083	-208.5322764411253	-207.9022392211027	-207.8984937020105	-206.2603323060369	-206.6716813094316	-209.8814147896512	-212.6781866330086	-212.3588081320556	-212.3009386022114	-210.3154340401829	-209.791835075613	-208.6742370988588	-207.65306659958	-207.0853558844353	-205.043401740046	-203.7287527004856	-203.736437906854	-200.1479074969645	-202.0521623082702	-197.1303160335544	-198.8483057505676	-198.521694114209	-198.8013526228263	-197.7765003390501	-197.2453436373013	-197.550513770222	-195.5412406509468	-195.9781650132398	-193.9878818388041	-193.6553917977286	-193.034978501515	-192.8722863140852	-190.9820457026279	-190.9494936289031	-189.5650270462804	-188.8610384277353	-187.3494020599636	-187.6738170761028	-186.4927972487606	-186.4065747174465	-184.9137963787251	-184.4926959823318	-185.3958018503132	-184.0538981193928	-182.556791757027	-182.1850352767785	-181.7859574061753	-180.8290506470152	-180.4545802587897	-178.3915077305359	-177.3484421746566	-178.1513765282702	-176.8291060169363	-175.9765698443989	-175.8700678543514	-174.5076890143136	-173.3829868535432	-172.0081427125298	-172.1215562006093	-171.2871695655804	-171.1299659642996	-170.4176459002391	-170.4063441261679	-169.9003121945543	-169.5807410076171	-168.6919072422627	-167.7982296477064	-166.383084492005	-166.7383070326123	-165.2096846542366	-163.6270019997037	-162.856361817036	-162.8998273284639	-161.2528824160122	-160.8671102537155	-158.9365686275701	-145.2301772279805	-132.7207585730221	-124.1555479039231	-122.9820191147654	-126.7271721035834	-122.831855962906	-106.6358015703204	-95.36107468249325	-114.57762713245	-133.3192130780403	-148.5271025982346	-154.7603681989761	-156.0501518533798	-153.2057169085395	-155.0225234092318	-155.612387083756	-154.9260321971616	-152.3877989963572	-151.9405407365135	-154.3383621784571	-153.4612837403367	-159.9547673160931	-176.1798861660901	-142.9546150429894	-137.5660062402329	-119.8352568963707	-123.3052720862	-149.1670853794399	-195.3733815147418	-228.4752935885802	-223.5400778709632	-157.8863336708799	-137.440902641714	-136.7821255660533	-135.8050668173493	-133.8434582817571	-133.1655637920674	-131.1642352641394	-131.6756268305125	-135.2622852219559	-135.7880155899506	-137.3097279524941	-136.1507321331421	-126.703984568689	-125.8312978888076	-126.5176542576019	-114.569876709287	37.35748727030935	52.34597711793425	58.26012360270141	62.72121174108294	82.77893337271126	97.05807348483151	104.3480334693324	81.20858706776454	36.63218609971563	-28.01013899408753	-89.59651032723323	-115.5832330508079	-120.6811409558547	-121.3953330383614	-113.939064298728	-114.0050711059035	-112.2177811335855	-113.2048506602667	-120.796491679175	-122.6191098855897	-111.9105448140346	-107.8361329798755	-107.1369896727321
-218.1158162323366	-217.7662127114675	-217.0338058746577	-215.9290615352472	-214.7211086539184	-214.4979634622568	-213.4998500642832	-212.5021887372723	-211.9458450129935	-210.45771633529	-210.9390118331364	-210.1258740155612	-208.5773575504205	-208.0686784098245	-207.6792244630303	-207.2802755438165	-207.2056793883469	-206.473918790684	-205.1774830232269	-204.544991280206	-207.4091898782222	-211.3774228419072	-210.9371398146903	-208.5558508301879	-207.0996279870623	-206.5769331644182	-205.183554113928	-204.5610079320898	-203.7083428081629	-202.9526861840639	-202.4328327385861	-201.8476187250799	-200.9772561346075	-200.5340027788347	-196.0015452341184	-198.274071873759	-198.4906924215568	-196.6260923857922	-195.2482779162229	-195.2366530225783	-194.4689179516719	-194.1266127830029	-192.9125873287733	-191.632750717752	-191.6607153828539	-191.7231056223265	-188.8464417233348	-188.1043487103211	-187.8075115051156	-187.7708907927251	-187.3128465643678	-186.2870249218712	-185.6649975099904	-184.3411114007892	-182.9045884762446	-183.2696291088451	-183.292299355982	-182.8133931643392	-180.8342813303854	-180.3949676618888	-180.0442006141153	-179.3435706604941	-179.6935625177313	-178.2478677403405	-177.7669605788621	-176.9268897073003	-176.0973454192734	-174.8461197125009	-174.665214252968	-173.9506338340932	-172.1631496935911	-170.6643002641687	-169.1766251396279	-169.0151602136973	-168.9448905996722	-168.4497735879616	-167.0624641459726	-167.3166110302864	-167.2695926857505	-165.9856859538637	-166.7686624861176	-165.1692532059593	-165.1633762834423	-164.6373227958741	-163.431370884381	-162.9362538726703	-161.7580754224947	-160.0971800447894	-161.9179899673527	-158.3216439175055	-154.8164294449689	-143.9783690166559	-131.3501772388584	-123.9212936241745	-116.1029560626964	-119.4400549784489	-114.4469697309877	-108.8946341652864	-95.94254317690736	-102.6881711849422	-144.5847681130212	-146.8708568815472	-154.6513464691357	-154.3175016973715	-153.5717268998603	-151.1184237520762	-151.717137642073	-152.8019893769184	-154.9651059503504	-158.4083837365771	-157.1389447577013	-144.1987365657458	-143.1295798454105	-169.4375530883844	-185.8153533478339	-157.6014444788925	-141.0607578638293	-141.8810665644151	-145.8443904821036	-195.8023627678875	-218.0321771754102	-141.4911605466582	-161.4055638254646	-141.5324946546613	-133.9362691915297	-133.881241038852	-133.5238870948199	-133.5925411109778	-132.3770971914647	-132.5762159231008	-130.6555546413434	-136.0504939197798	-136.6907998205585	-134.771431017095	-127.6980945447917	-117.2271424179092	-124.2829118572562	-61.30613180217619	38.54748478231368	47.54994441547894	61.36199887998496	75.56686595620907	93.83212918454414	98.34456369110595	109.2461111868015	104.5870011446937	47.12219042383236	-22.38863212447084	-93.59884426351583	-113.3486833364464	-114.1509714509132	-114.1231357372008	-114.1850739057106	-114.1405738187677	-108.5340505077197	-116.1955090696903	-118.2005178999158	-126.5074493114405	-125.7004463191612	-111.3560745904018	-110.4439243387635
-220.0987388021773	-220.0514610726626	-218.8899455135176	-218.6280482060407	-217.6353611418211	-216.7597678679785	-215.5058934700237	-214.1864006012615	-213.1829913031231	-212.4057612597969	-211.4501469789306	-211.28661438417	-210.4932387375707	-210.0893822545602	-209.1046382994878	-208.8194912047216	-207.4469074185225	-206.7151483030595	-205.8976172450453	-205.1543607051272	-207.4943140994265	-211.8875886289811	-210.7471914537005	-210.7961485156772	-210.0272514000662	-208.2436417300457	-207.5636143547313	-207.1740966733424	-204.8515161438154	-204.892528614445	-202.6766457253492	-201.8299864753289	-200.5617095411577	-200.6549725218932	-195.2895482896313	-197.5281014258639	-197.2718898371197	-196.8659004684844	-196.6839619156364	-195.5473769584426	-194.3526630864258	-194.7396625102216	-193.9801951502358	-193.0770240654596	-192.9663882199518	-193.3764447450528	-192.4350388322189	-191.7736130653758	-191.063230236556	-189.4388251376519	-188.6725767132233	-187.4400163495168	-187.0240814196989	-185.4362985153851	-184.165501841421	-184.1510993052046	-183.5982431972391	-182.724264039064	-181.8565501397739	-181.4286034621431	-180.4660124664502	-180.6262501308817	-179.7021533482252	-178.9057421562754	-178.9631581329569	-178.3119373122751	-177.0941678211531	-175.7667288788439	-174.447817032434	-173.9003220414279	-175.0482102548928	-172.959755053725	-172.5748855511541	-171.6877963350563	-170.6590695807985	-170.3557092139291	-170.961138951574	-169.2014267901897	-168.9882271597107	-167.8125669671281	-167.7007038601211	-167.0642086952292	-165.4420002165446	-164.6621881810306	-163.6364317553287	-163.0837045987527	-161.2975114543445	-161.9388519306382	-161.1065952168343	-161.0452395528766	-157.2329162299786	-147.4807435942259	-137.654941197324	-127.2700826503663	-120.6646707508083	-149.7884028175792	-135.9314614119621	-108.5427688074032	-100.7761007336788	-121.753850509298	-149.7488769934274	-150.8724156272935	-159.0725871459919	-154.468697942546	-151.3818714406257	-149.0608412921712	-149.8395550175754	-152.4762818824855	-156.9018491007862	-161.6056519158211	-156.3267748166466	-153.1712275995739	-177.3220264084274	-168.3924213458749	-153.7773035763657	-153.1031546057682	-151.4602131151875	-152.54984494464	-195.5423389610566	-259.8515292568372	-273.2134840843331	-173.776703607187	-159.4335576577269	-142.4462590219668	-140.0647758692804	-136.5905630893961	-135.6762176997383	-134.7414638999577	-132.8456680033568	-131.9297084980317	-130.2375535248954	-130.6990216349712	-133.4807432207655	-129.232659062479	-130.7349308914202	-137.8107233689217	-143.2517116331736	-14.06019251051368	32.58774138269375	43.60037679485994	63.66798025307617	78.80521034067738	90.60760483174008	102.0260354443574	94.36044302692656	67.73619204514483	13.85868447267389	-55.38397699146716	-95.58370406859727	-110.8814949402034	-113.1631282158956	-111.4139426380461	-108.1070717066094	-112.3632294076324	-116.7142642050582	-121.4921473700051	-121.61072780686	-121.1333067794951	-117.086601707659	-110.9930364098367	-112.0344211510543
-226.771577456394	-226.8990703611165	-226.0360061228443	-224.3399766792264	-224.355799162926	-223.7397138903568	-221.8692354498753	-221.666371199147	-221.316121439131	-220.5193219108131	-220.925827085006	-220.0238180449343	-218.1370013151956	-218.4136227962625	-216.3313676371851	-214.8779224366312	-214.4999659142923	-213.1938410062314	-212.3679147681072	-212.6330403069188	-215.377819542949	-218.6111274122312	-218.7632915339262	-216.3833602445122	-216.4786241950833	-215.6730426324872	-213.6665471557837	-213.2171574925152	-212.7719654193018	-210.8978704111175	-210.911176119424	-210.1463476424787	-208.0162337315344	-210.0753028379172	-202.9507489488231	-205.5399401814397	-206.5231974900343	-203.7019485978884	-203.2278877176474	-203.1091131126085	-202.5791851545587	-201.3776250013046	-201.2713809140359	-199.1816999335688	-198.5366776727776	-197.703066228285	-197.3449356115167	-196.8201746022422	-196.3187923316466	-194.3329646500447	-194.5221378204982	-193.9258784534996	-191.6948178376513	-192.469010853427	-191.796023927534	-189.8866006852531	-190.0357307437974	-187.9487607069075	-186.7622493290167	-186.821151952176	-185.8416401626736	-184.8899003522889	-184.5198854568973	-183.4769503346071	-182.9348149783606	-181.6275932423899	-181.2935528202418	-179.6656615872242	-179.0498979520285	-178.3948011786653	-176.8094713151499	-176.404000716472	-174.6301439216501	-174.3037264534755	-173.0703256824382	-172.7802058070806	-172.288447460294	-171.9941285126815	-170.4171300946815	-170.5605106998982	-169.5253897353659	-168.7078601595516	-168.3176310222212	-167.571662056526	-166.3903828442052	-166.8073493851383	-165.4841109972839	-164.6341582991342	-163.6959154008403	-163.2030602261438	-160.1548554064496	-150.7601004493237	-138.273804112465	-124.8401597234608	-139.1543064323041	-166.3996184316462	-154.8551163439896	-146.6651497714525	-142.9449926013802	-150.2610437503369	-152.8915053563618	-158.1420309362663	-161.5129062228431	-156.5376473933168	-149.6303617733672	-147.9156655044833	-147.1682113745102	-147.832220615741	-152.2087018206756	-156.3358814526982	-150.1502789534397	-150.3829176353211	-156.010043524676	-151.4929593570963	-150.9229215881428	-150.9372603897644	-149.5620931291776	-149.4246546632725	-164.7445999764579	-217.8507559103196	-217.3138512374432	-192.6966767547171	-159.3842789583766	-196.3481146918368	-169.6734852183952	-132.5225439833116	-131.2021469726237	-130.5770825331924	-129.7378505867617	-129.4725960965606	-128.1886893646739	-127.810925528319	-127.6822705788921	-126.2939932603827	-132.3129624027354	-132.706937059158	-136.5388936016424	-103.6348744801408	41.08132622487904	57.28939384747734	64.79997928384689	72.31088783978991	100.8469513700562	109.4433578999915	105.1808712054886	99.67309946132501	45.80101822260814	-23.69553074086808	-86.63543218077879	-104.0300111812679	-109.8950731348689	-104.1605396313409	-110.6496966656529	-130.3485124899766	-121.9053698740459	-121.1896911450614	-118.0124430395721	-117.3116203999667	-115.5520371899717	-105.8111011114954	-105.2120018495303
-220.4895489618599	-219.7573362932342	-217.8896354953244	-216.8849352010922	-216.3830371249388	-215.0010235831146	-213.7114993136895	-212.8990062530613	-211.9888584534586	-211.6801369696298	-210.6053612295563	-209.6979258557307	-209.3172554254147	-208.449219888751	-207.1627296824766	-206.6515945366824	-206.1342608309976	-205.6287461871415	-205.2212716542283	-204.2783153603218	-207.5374579734809	-212.1769333138023	-210.4440889896099	-209.0366942570715	-207.7507213385546	-206.5740917872517	-204.9135195291198	-204.5530648229425	-203.0691352174939	-202.7801773868409	-201.2403154867889	-199.6266326218037	-199.1182751185812	-200.6609783957996	-193.7534333908714	-195.9062160667526	-195.3312069994077	-194.6237959813437	-194.3317373885455	-192.9294443879879	-192.3628957175477	-191.8527951472684	-190.444817910178	-189.7762879593187	-189.9787653558788	-189.7944374968272	-188.3481602148842	-186.2969067484592	-186.6793854626265	-186.3264232768335	-185.805471521246	-184.7077024144622	-185.3565339289403	-183.7978139998381	-182.8022840762522	-183.0209722928801	-182.0365514573811	-181.1284075920137	-180.7627844548611	-180.2763234904392	-178.3961573915538	-177.801384671033	-176.9828857364984	-175.9909723806153	-176.5765747304897	-175.9204448638114	-175.3250896387385	-174.3899489847896	-174.1423904789343	-173.1557730232159	-173.1221241215813	-172.3158311030435	-171.6475590549631	-171.3270185093056	-170.2053518938857	-169.5304929495466	-169.3232354583793	-167.5936208477214	-165.9641792336312	-165.3269073960031	-164.6123269771283	-163.608465608027	-163.3652351258161	-161.8754923324452	-162.1588326255599	-161.0005452977496	-159.7251641795622	-159.9259622436603	-159.6962938903348	-158.6391489178125	-151.6667606326131	-140.7455132183365	-127.1512443107326	-111.2652661326645	-119.1383087272469	-154.5803668813688	-151.7977411536489	-148.5402778729518	-153.2097218126104	-151.1790709244921	-156.3765708037543	-159.6152383077961	-160.2486341927427	-153.2969774372396	-150.7586152850457	-149.2562145047152	-148.7114304572863	-147.8706496119828	-146.2931991230199	-146.5414038680221	-146.2869338641348	-145.1052677976458	-149.6735041652217	-150.677559702507	-148.3844957013542	-148.0140302171996	-148.8266522292172	-148.005762506279	-154.8086790218058	-204.9454253636978	-247.3558046465534	-198.4734485081739	-228.7468133376664	-244.089363681194	-253.5641396453437	-183.5726026215463	-143.072420289308	-132.7864422606241	-132.3882047973518	-132.5000679043588	-131.342686200674	-130.0636885147838	-129.9183054575316	-135.0922946823259	-159.1368494039107	-175.4111180018685	-151.081739305091	-131.3213721664256	36.1045170142802	54.38954389579108	53.03459384154277	77.79928278494593	99.58293724273466	102.8090119766113	107.3915234112141	86.48287972271577	30.76182824594985	-39.45207729677301	-89.90032276506551	-94.52145588189431	-117.0537279965606	-117.0565056391323	-124.4711794035841	-126.2478775755725	-120.825489437592	-122.0536595252592	-118.0732191633774	-122.0432604109139	-122.7925228247384	-141.9212386277138	-110.8733576628721
-224.2197821267042	-223.0856502103087	-222.9050026535546	-221.8428196836462	-221.0608762447074	-219.2196564298215	-219.0995270940938	-217.8991942023389	-217.0814067237459	-216.1155207977237	-215.2020158153968	-213.9005420505537	-213.7124034556152	-212.8990699876561	-211.7028072167667	-211.5399208611529	-210.7575253512512	-209.25841801905	-209.0348859732202	-208.9109444194059	-212.1589779444779	-217.0662289969931	-215.5335364977519	-214.6811944933986	-214.7399029483739	-213.079330690242	-211.2191861473113	-210.6142736974239	-209.654395127508	-208.7554216327869	-207.7286321137699	-204.9972875374357	-203.2635390713176	-205.618604975575	-198.4224252595671	-201.0169123923485	-200.911249327432	-199.7711767539247	-199.1231204299829	-198.9373696590482	-197.8830023290976	-198.9244522871098	-198.6898111531929	-196.6158237050361	-195.9108019931758	-194.744829458997	-194.0870202598567	-194.3730729787485	-193.7074481396505	-191.9154432895199	-191.6678210490699	-190.7474683033058	-190.0491001866986	-189.0575099503889	-188.4654496556452	-187.6943559198149	-186.9676333195379	-185.4842847364416	-185.4319052749462	-185.4086554876569	-183.4126228598937	-182.8628660318734	-182.713349119161	-181.9659587237825	-181.7367424414198	-179.9593342956898	-179.8850597775937	-178.3452645765363	-178.1081037028265	-176.2327176985483	-175.3912268795032	-174.6999614647123	-173.60400064178	-173.5726120949595	-172.5409787467406	-172.9073755922296	-173.4220620889319	-171.9318020078036	-171.688894645166	-171.1253800378765	-169.6175544059917	-168.669623849294	-168.7807769825592	-167.3538127650292	-166.564828876669	-166.0941903959467	-164.2741541817198	-164.4020354228104	-163.0625195158937	-160.8583267372373	-152.8592778844104	-141.8988277655555	-130.1780698793838	-123.6297523191337	-148.3325045762269	-160.2052976327042	-167.612157239398	-150.336545529932	-155.2237735442928	-157.6050610465952	-161.0224403543502	-156.1099586184648	-153.4475274432672	-152.2211671216512	-152.062155236519	-150.7352350641671	-149.2116492009776	-148.893628395113	-147.7064707780752	-147.0657128063337	-148.4377140879807	-152.707629568273	-153.6004667554984	-154.4600433774572	-153.7182067850223	-154.0970051968922	-153.105091841009	-150.690153954872	-157.7738258069259	-209.8042988943888	-256.6831951014153	-261.8862487836211	-213.7098837158223	-250.2674084432737	-277.25056523236	-303.2617012701285	-216.6823925877374	-189.982510874971	-135.9919144161939	-135.7775527410105	-134.1338375420933	-133.2835617243701	-132.209367006649	-136.4296791858178	-153.1473953077325	-169.2521906538178	-170.2366767061114	-138.1052350025183	-51.85563871863094	59.61378266085582	59.04710503902616	57.07219227732727	78.59634021604263	73.23356467496305	66.94746605956342	58.27859477758342	-6.043382456546361	-72.91186060240113	-96.72138733590087	-105.0506643927892	-130.3100834937347	-126.8643526667097	-128.0269665359645	-127.7892898566971	-120.194032270086	-122.7597780650294	-130.3399868762773	-126.3461133368994	-126.0225372458913	-148.6099012478301	-176.2550648261118
-234.4385246045135	-233.8682941495759	-233.2161691869684	-232.5166375434569	-231.8329936004398	-230.6141895338027	-229.7553895845801	-228.3727950204037	-227.1974579473946	-226.3069448495781	-224.9441791553722	-223.4866000993581	-223.0314624649619	-222.3914796837566	-221.8590957205086	-221.2233105293584	-219.8642266196498	-219.6547087736682	-218.6886953784565	-217.770733421096	-220.6281494724695	-223.8428572154803	-223.8554514678453	-223.1318933643084	-222.4426956183476	-221.1126746838505	-220.9044493161628	-219.545234972865	-218.3405755396656	-217.5112906366174	-217.0346462819886	-215.6605773315115	-214.9506465736547	-215.8323109381983	-209.0926902862698	-211.1891538133794	-211.3214905473038	-209.0720224911683	-209.3614976095787	-208.6013840104459	-207.8858342328508	-205.9651092164987	-205.7481655491275	-204.7895142407108	-204.7016775937293	-202.3774177317403	-202.0564251151199	-201.2074417756905	-200.8284506778365	-200.4211065785126	-200.8916161078455	-200.6033030341395	-199.8102505071136	-198.7574972928304	-197.1496276157673	-197.6796860074064	-196.3377155774914	-195.6905633954753	-195.4029617777108	-194.345687853799	-193.4258538779923	-192.692929753425	-192.1219893247457	-191.1251684050659	-190.8894941778339	-189.8179466690952	-189.5205921761322	-188.7166247292033	-188.0127650620475	-186.5298048153193	-185.0981894545714	-184.0325840851444	-182.9822201770647	-182.8725536902773	-182.2467792771043	-182.144216974333	-180.5205233313704	-179.5276406167669	-180.4489612390515	-179.7125509803707	-178.4055871471789	-178.0972539997181	-177.4751598888427	-176.6174567675299	-176.1665819399835	-176.1016734429177	-174.9555282965095	-174.8964329873661	-172.5533788309216	-167.643222666645	-153.367828073617	-141.8935955999855	-130.4630242881659	-125.0394088886862	-154.6324884400854	-170.3482166935448	-173.2179690945046	-174.5534800973504	-167.727379011329	-163.6571647672249	-162.0706713768051	-162.9101612260147	-161.7156430043819	-160.4903795106757	-161.2518493226971	-159.6861541609681	-159.4633973056746	-158.7176862427582	-160.445621520954	-164.4878696177564	-163.9792542117551	-164.8025332408969	-165.298167540365	-164.3625733332534	-162.7353920739774	-162.7757583054601	-162.1579270014343	-159.8766183275155	-159.5857869962164	-169.8996659554074	-212.2536623548966	-266.666845856545	-280.2286293894186	-292.7780259394916	-282.4644700998741	-214.7540475818114	-151.4319253305122	-146.8807387081351	-143.6674523948075	-143.8819430213803	-142.9236785671318	-142.1585921874077	-141.7928415810656	-140.5373530674434	-143.6609292331435	-183.2361091585998	-196.1610729248081	-167.0788691342244	-56.69882019921151	8.995159798765165	15.92324364740553	20.65023251513496	50.48131186537506	7.971018970930491	-60.16883538904079	-120.9559541530702	-95.08380696227951	-93.80151582825998	-115.5102495288058	-116.9450946030883	-112.1683082660512	-111.9756489614843	-111.5988530016499	-115.9815994654696	-126.0536026731383	-125.4621248829468	-134.5810320673422	-146.0498382072197	-130.9338554548723	-133.0980066038193	-170.1676980881801
-233.5898643846577	-232.4833117613957	-232.264816230752	-231.0981337228316	-229.9795026527622	-230.3119912116378	-230.1901825434482	-229.4145043633946	-228.0374636021617	-227.6112614737876	-228.1359572662674	-227.6002161202954	-226.6203812112195	-226.7981873908072	-225.4825037757319	-223.9614376523352	-223.2334225737645	-222.7457980824381	-221.7714532417112	-220.9302188432451	-223.2885796778316	-228.1417704541896	-227.5717993842307	-226.0726920520294	-225.5157658231984	-224.870745044607	-222.9234100938418	-222.5347950721787	-222.1452121739952	-220.691638022052	-220.1400091755856	-217.9786356692103	-216.4168149779629	-218.2606182672366	-212.3675916485337	-213.3446503972377	-214.7013450007427	-212.9287806842144	-212.6807701073963	-212.6889726015222	-211.2987565655721	-209.319904116597	-209.4377730975103	-208.4999837523791	-208.1683341186346	-207.2548291363077	-206.3555977388078	-205.0012924415066	-204.3906957550862	-203.5223356166493	-202.6966020645092	-201.7703738784279	-200.3326236923843	-199.5346621193619	-199.5636613599787	-199.0672533521742	-199.5072132598177	-198.0912276967854	-197.3103825679563	-196.7283967857847	-195.4984198964659	-194.1709187017618	-195.9180366107812	-194.783452623423	-193.4649276311812	-193.5316458942982	-192.8465805215978	-190.6809456905727	-190.9471043226994	-189.8424237178836	-189.305326359023	-188.9532683151556	-187.5001462341752	-186.5790835146695	-186.7061895652237	-186.302396816808	-184.8256366121702	-184.3690123312962	-184.0010013701399	-183.1935463068977	-181.3909496564376	-180.6600279839057	-180.9996222089974	-180.4517388816232	-178.163583926467	-179.0555169717667	-178.2791925525661	-177.1865251777631	-176.2610069654235	-169.0268503241366	-157.4640060129874	-143.5185817212419	-132.5753755157699	-127.1929015383091	-150.8135130041342	-178.8410915619885	-185.1493416545677	-176.4529562962488	-174.4105515630965	-169.7853483254022	-169.3559802180882	-167.9530424605836	-167.3964393513261	-165.2778228648369	-164.9002517144663	-164.1024857918278	-162.8165766079056	-165.2078763703852	-171.7461179358634	-171.6160415567532	-170.1540055257054	-170.1921766191684	-168.5406457802936	-167.0991500751577	-163.7905345944644	-158.0689184628748	-162.3149364345311	-168.5506565582709	-167.1231750529833	-164.0616660071824	-200.0521899932307	-256.0813181968784	-299.7063024741161	-304.7573847206111	-290.4584809553151	-262.5946291604054	-161.2259508442255	-159.1871626787759	-158.6745423687038	-154.5424551728845	-146.9497810606611	-146.2752437536955	-146.7380028598653	-151.7479451665412	-187.5329562106789	-225.434645023865	-206.0246580788049	-189.2432592391238	-188.1813356541942	-126.3289331581113	-108.3050921281358	-90.76086726354475	-103.4763146659715	-124.8305372818515	-128.1175808255177	-115.4032317332007	-126.1225160742749	-128.813172781753	-141.1232133200966	-137.8443722705563	-139.0184168652717	-138.7798360440786	-137.4558862002827	-136.0041855489855	-128.3801881067363	-128.4359899677504	-128.6603624209111	-161.1698895982326	-144.2411704660585	-134.3985762267367	-156.6717924110926
-236.7850663772714	-235.844628340958	-235.830160587947	-234.9464952535678	-233.7776161254279	-233.2850173713104	-233.0950052757258	-231.6374914365064	-230.8561290199198	-229.7144408485454	-228.5733351817231	-227.9536955938459	-226.8334504081092	-225.8098906026268	-226.1080840207208	-225.4086813285987	-224.1636556639167	-224.2587269285036	-223.6766121949426	-223.0290731587583	-226.2886678428802	-228.4018594778152	-229.1292268350391	-228.753400233925	-226.7549782999582	-226.0215398520332	-225.2902313253331	-223.5756002732439	-223.3171905820804	-222.1320368992779	-220.4631969302256	-221.1210061293659	-218.0920491572898	-220.5297210251585	-213.9912215569016	-215.9479847810921	-215.6549583117733	-215.6725905615243	-214.66097876926	-214.202675155924	-213.9642232861203	-212.2202713560407	-211.5945606774625	-211.3720617249478	-209.1612168332381	-208.0972893140732	-207.9305284879778	-207.3016533126597	-206.3885366667009	-206.8195188896821	-203.978829463934	-204.4986191748169	-204.3619544172482	-202.3731549248906	-201.2159673893898	-201.3092941047202	-200.6405047688822	-200.1918250793553	-198.8144626807489	-198.6560985169635	-198.8043881681768	-197.8884923974464	-196.1643026383427	-196.4410545529989	-196.1440869142041	-195.833105075561	-194.6703622549169	-194.466786548247	-193.712163017463	-192.4185048925776	-190.8677932894173	-190.5987917979242	-190.7350682191249	-189.5318939502034	-188.9973800657305	-188.3506147378826	-185.7478613763805	-186.0080778691955	-185.0280487919357	-184.0358775332737	-183.7543470062103	-182.5978694444512	-181.2520897608493	-181.1701937709796	-179.8015511542566	-179.8372662425215	-179.8667827708958	-177.2454278009224	-177.3557405268567	-171.3755872349141	-165.0004899278285	-146.7566044683366	-127.9483002596294	-128.6744418375541	-150.9938374413149	-176.82516632966	-185.984891816501	-176.0958602549954	-172.7581165822959	-171.4134989433985	-176.0537494742562	-180.2953756876734	-169.0151602136973	-169.5265532622703	-168.9733725525315	-170.3350414188276	-172.685069325699	-176.2941400615005	-177.3964298779128	-172.7327339093819	-171.9644830329178	-171.661638471606	-167.370217753281	-161.3631966241464	-160.3560403247159	-161.0347114871418	-160.4089370739688	-174.5580660237736	-201.2215211923335	-199.9776575723559	-197.210144354594	-176.5729581627869	-196.1345282071896	-258.2307422078358	-286.465899894231	-267.9292443859993	-216.2059424012927	-161.0640975819268	-156.4989604942961	-150.578937087012	-154.185811202594	-155.9664490618587	-151.8746628807274	-156.9957568384687	-205.2283758382445	-217.5869851021966	-199.9154615010672	-196.5180400146721	-195.6294004175018	-151.2575430326431	-149.7032785963748	-127.7936163981415	-114.3706942430561	-128.6971106024911	-153.3872033904247	-174.3831027035523	-148.8277505393269	-141.1553118406587	-143.2682455728148	-143.9275399362331	-141.6341528155069	-143.6834690466912	-143.4817668406674	-165.2708476322101	-155.5226132015337	-130.4424854444538	-131.5325041280745	-143.6679044657703	-148.003050080502	-140.148997430759	-145.4763143041527
-249.6322694912703	-248.8875277870742	-247.8434291378797	-246.891495159311	-246.5311041877285	-246.6704161542795	-245.0229554362702	-243.3512088732567	-242.392751733024	-242.2287685495004	-241.3736489025753	-240.4266877045979	-239.5241613767688	-238.8286346373282	-237.7588301956462	-237.2497627186821	-236.478993584625	-236.0709380293595	-234.4124971746525	-234.008640691642	-236.1940391758429	-241.4457268004518	-241.0561439022683	-240.4971514868071	-239.0812296583696	-237.8489286796418	-237.6941796013593	-235.8924218760303	-235.8072339202311	-233.8391022229749	-232.2532550717021	-231.4237760004698	-229.4017159428456	-231.8324125780875	-225.3558512783404	-227.6793996843879	-227.2643036797011	-226.2353190226645	-226.5758811242766	-224.8306367159032	-224.2181665288369	-223.1727116667538	-222.8745834654544	-221.2867338621461	-221.2079386344217	-219.5981317221178	-218.5486082213692	-218.6045390337727	-217.7872673607372	-217.4719574984498	-217.299190798448	-215.9776302608557	-215.1294206297628	-213.6161049295292	-214.2623529696196	-212.7620183759192	-211.8556827944031	-211.1230832716092	-211.4619660407593	-210.0152381700535	-209.1307309461435	-208.2402830651218	-207.4589206485352	-205.6946240429276	-205.8681659334656	-205.1258135354732	-204.4067124069699	-203.3402028956172	-202.4164277503343	-201.9825389333919	-200.4964127077239	-200.5670706581171	-199.4755653280185	-198.9776721559361	-198.01365973056	-196.497050582197	-195.7967437481493	-195.2372992617252	-194.1824783786118	-193.8204095567672	-192.2489664239106	-191.6926212174318	-192.1730125733526	-190.4984246331725	-189.9659132007351	-189.31959994385	-188.4252761101468	-186.6433472547882	-184.8026432454598	-181.9218469732077	-169.2326211688261	-149.8545400583439	-135.8617090856944	-142.8557997415102	-181.0149288871395	-188.470551387626	-184.1226810869401	-177.3587760722072	-177.0546405148015	-177.0765355714022	-179.5922274764591	-185.5214864711843	-194.6465299630754	-193.8319707158171	-185.7955259600633	-183.9749087234842	-182.8925752462319	-179.8227999717103	-179.4793950107318	-178.7218648859867	-179.6710227041836	-174.029363845023	-167.6905003961597	-166.6852175973753	-165.7056405910783	-165.6176097759128	-164.5562019965408	-171.982502136837	-200.6810651685489	-201.1944591869574	-187.0573434671654	-173.8416121042527	-180.667326336106	-230.0338193494984	-278.662028603564	-185.9525991277549	-187.21377039571	-180.8804607497903	-176.5682432849743	-151.3586839057313	-156.0691403160194	-159.0910583208739	-161.6955562316326	-173.4645597238394	-210.1887163259968	-190.0964416508081	-183.6745186851707	-205.7113506685529	-215.8418059106179	-161.8030275804005	-146.5695627013079	-147.3098489126702	-158.3824200413108	-153.2238649638481	-152.4255165366575	-150.4154697090459	-147.981026072512	-142.6340744973319	-140.829540611631	-127.3145175205146	-128.2222745317138	-128.7996743874623	-146.2521214355957	-179.0265177311499	-187.5682192279809	-135.5544727661434	-135.2764950721881	-141.1746234228716	-142.9845836423266	-141.8310111923288	-139.7618675733739
-245.1388219651481	-243.9966817228108	-242.9719598726239	-241.7068474351926	-239.6028276531039	-238.9045232710915	-238.1209642342855	-236.8849814710603	-236.097288578794	-235.8621953739143	-234.6849210656644	-234.2313323301409	-233.4931137876087	-232.3228799287802	-231.2105126353961	-230.9561730650981	-230.2516034242006	-229.7601681969874	-228.6870065725813	-229.307419868795	-231.1533545614934	-236.5091548699462	-234.6076110022178	-234.7584841278188	-233.453393795273	-232.5125689047913	-231.1902331766627	-230.6076663721388	-227.847258820593	-227.2621085416814	-224.6249948226031	-224.7412496878492	-222.192037832547	-223.9175185877446	-217.0166909126643	-218.0983781507697	-219.864613473818	-218.2312959070463	-217.6806349371004	-217.3265107066028	-216.3010774004744	-216.3292362337602	-216.051645393973	-215.616012027774	-214.6426365457674	-213.2169633243312	-212.7182934795126	-211.6743889985021	-211.5102116467944	-210.176703095984	-210.2534958716731	-207.7662859194755	-208.2067631148764	-207.1137088859052	-206.4166954999867	-205.1605607472176	-204.1448803162877	-203.3777914845281	-201.6864117019281	-200.8544143731028	-201.5253988469603	-200.0370122664781	-200.8284506778365	-199.6500128426822	-198.6014587006538	-198.8192427753561	-198.2640610957816	-197.6722587038168	-196.7785158924658	-196.3348104657302	-195.3363087313884	-194.0478812898732	-192.9693585485077	-192.6605081132895	-192.4307760253692	-190.4395220100132	-189.5182028699285	-188.2253821879743	-188.8403706326337	-187.4849685074226	-187.0905402978372	-186.3995994848197	-184.8309977291296	-184.0031979903594	-182.9633621480145	-182.3052935638955	-180.6702981468617	-181.208299647648	-179.7392246493787	-178.8910802350804	-168.7984092323102	-154.3202793399432	-123.5030998217422	-123.6377621272755	-148.0910171610727	-173.3182710424616	-174.8948173894988	-173.5943129833761	-172.1098023555753	-171.251581946505	-172.4369297974915	-177.245493017717	-178.2969537537065	-179.4667370237721	-178.0771020101742	-179.3795451337376	-177.6068518658201	-170.1755774627326	-170.0622291914477	-171.8278834921438	-168.0578651181691	-162.7168556823008	-162.6399339552223	-161.3152726554849	-160.2840913782288	-158.8212179042497	-157.7667201407099	-166.0027371812625	-181.5961394787748	-165.3526131884906	-166.2405428119193	-184.1540058991658	-203.6998824112582	-232.0760313966666	-233.6402413941176	-157.7012943558866	-153.8852922128911	-157.2659203746663	-154.9430819423604	-155.4690716953338	-153.9125469042512	-143.5996373037806	-154.7903367983132	-157.4921648462732	-189.11079355381	-183.773271734255	-169.9018625756268	-208.111370212916	-216.0931751523601	-233.8010600809012	-197.6577257340111	-151.4182327680375	-146.5593577551466	-148.3302442214127	-148.6383832006894	-144.894328521981	-132.1881181891952	-143.7565815200827	-142.8725263671356	-142.2731677201917	-133.6609387065568	-132.4438791891764	-139.8984033795532	-163.9049811758589	-187.9953921972752	-164.5295283275328	-129.52833422298	-124.8916350430304	-134.7737565887038	-136.7583570088066	-134.9673215173964
-242.1079277578312	-241.4371359699579	-240.9544842592229	-239.4741727036769	-238.1891024448858	-236.7206099511686	-236.4953333560821	-235.677802298068	-235.1207471178475	-233.8968413192298	-233.840329484474	-233.0931969918744	-233.3906167016321	-232.9140998161929	-232.600986574125	-230.9983475804321	-230.2624546095088	-229.6074230529402	-229.8137097031873	-229.3088412984781	-231.4719578719102	-236.2568162694838	-234.5695703423441	-233.4918865261096	-232.7811168431216	-232.280122908894	-231.7330147720562	-230.646676390733	-229.1802500836459	-228.5396210632937	-227.0288236206532	-226.3388506841561	-223.9206830844845	-228.1889192323149	-220.1626142059279	-222.0396780604681	-222.2625653493509	-221.8486980883631	-220.896635158405	-220.163647299243	-218.3609202151936	-218.010799406567	-217.7756409848927	-216.638603956736	-216.217632511732	-215.4909736460499	-214.2980043232897	-213.7260308012953	-213.7137596685038	-213.1018705037897	-211.852776200442	-210.7835542633121	-210.8256635618515	-209.8525459826238	-209.3394083847941	-209.8876163139416	-209.2770833621161	-207.8062652967899	-207.402730451153	-205.7796193127425	-204.7350033757906	-203.7115725216975	-204.3890164226243	-203.6248979194205	-202.5534793620712	-201.6189834650694	-202.2396561462617	-201.1754707243179	-200.8507325886054	-199.6008630947213	-199.3124862864206	-198.2919620262887	-197.7286415871832	-196.2999328203965	-196.3196327389775	-194.48293363372	-194.1753104600009	-193.4280490160119	-191.8261214782605	-191.4761933556181	-190.5033974137638	-190.5592644915726	-189.158650823477	-188.427536464961	-188.6712205003347	-187.8191363987602	-187.4784453457587	-187.027828420991	-185.4031654193081	-186.3965639394692	-185.6293461563202	-188.3925313504378	-195.7742676691963	-184.9608799400557	-170.485849327634	-176.6802353433707	-175.9377539939888	-179.6804524598087	-180.761106604599	-192.3677395467496	-196.2291474008137	-178.1110102967876	-181.2992370567747	-184.4472265366685	-177.1874293196888	-184.816658927508	-182.0069059776174	-173.8965750401358	-173.9562528538314	-172.586446710204	-171.3500756106107	-170.031744786553	-170.6867763431216	-168.1891035419838	-167.958854166306	-166.4964964978846	-167.2931655926132	-172.723886658309	-179.6024961572152	-171.5979572360394	-174.547474223444	-179.5260917178942	-216.6063750025846	-241.1581251826874	-240.4068588346275	-174.3294959805578	-165.5964261752537	-164.0735502858057	-160.5857086780415	-163.1747709592687	-163.7387361553212	-154.5141659060093	-163.1219394268105	-161.0097171505958	-179.6166407906528	-191.5434274242927	-173.5990278611887	-204.1189818378161	-252.4143141966379	-290.3134862344309	-195.7957106548342	-159.8849497730308	-159.1622958114195	-157.8725121570157	-157.5743839557163	-157.2821964115287	-155.4206956557094	-153.8574550169787	-150.7528673139181	-143.1798916380759	-141.0003063417973	-141.7403969027756	-146.0592679628447	-164.5362456573808	-190.5849050672654	-206.0523648411279	-137.3099221206782	-137.8999799633864	-143.473241226968	-147.2883407102378	-146.4278614285532
-247.0898387004109	-245.6051991212206	-244.8332012434645	-244.4155232465899	-243.2324994850123	-242.5155949767286	-241.5777404148027	-240.9762503644341	-239.9856932214394	-238.5665446438671	-238.5975448543195	-238.0963567519077	-236.8866608035223	-236.357700721993	-235.9700550590502	-235.0584220951695	-234.0767789022423	-233.5407783712916	-232.8633359525648	-232.9051873483253	-233.5106823027649	-238.24697197473	-238.6722714433783	-237.81889486351	-236.6398774882033	-236.5422227492287	-234.981112031723	-234.1037756908237	-231.9181178216441	-231.0223088236629	-230.9174861660774	-229.9884151206298	-229.0675480515079	-230.2198917578067	-224.6646510803442	-223.1585685155162	-226.1351460260968	-225.4837962540257	-224.1248398135066	-223.6153202655797	-222.190358500085	-222.3143637884941	-221.5964884392901	-221.1887574857979	-219.2300555441668	-219.240712561291	-218.9281151247807	-218.0351489861659	-218.5414388205583	-217.1715674601363	-216.6818115653851	-215.9454013067043	-215.1872264250122	-214.5754024770928	-213.6622843489341	-212.3566115118361	-211.043383901959	-211.2259686939539	-210.1823221157223	-209.2969107498866	-208.6682949595472	-207.5899663863657	-206.6472027784433	-205.7567548974216	-204.9691924387446	-204.0511015299945	-203.1824834887788	-202.2942959625713	-202.3989259341727	-201.5970898906687	-201.1898095259395	-200.9299798872927	-199.8469364362987	-198.1736394922126	-198.0370399514385	-197.6630231163758	-197.0083131971808	-195.9308235491304	-194.7113747255464	-194.6373581102292	-193.3579735701708	-193.0424058051046	-192.6065145361268	-191.6285516454971	-191.0253822626664	-190.3958623304013	-189.716417459639	-191.1101848464972	-193.8589022876038	-190.4646467801484	-186.166830369349	-186.5870918406114	-192.3323460958583	-190.1146549229113	-183.606445691365	-182.7468053348115	-181.3344363394819	-184.3235443678328	-190.6567902791578	-201.272608175535	-198.5043849840315	-179.6298812821647	-177.9618817204432	-179.7389667465999	-182.6005818702283	-179.631495397832	-178.958314303755	-174.292100077631	-173.0441678189878	-173.2222319013543	-172.3498683410463	-171.6412300614832	-170.4766789569876	-169.3240758657102	-168.9621997298497	-167.7393907591419	-170.6564208896162	-165.2334517292834	-171.8778084306409	-178.415211070988	-173.3709736235304	-172.5191489069346	-179.8629720350089	-193.7447150911879	-177.385257055231	-168.520818392523	-152.4146668335491	-151.1007277677305	-146.3683777830416	-147.6877417004144	-161.2169731595632	-165.6577818392114	-174.4535650035616	-164.1830878212038	-185.1545738201377	-216.3207106200609	-164.1025495264225	-179.5087173709221	-218.4628377610179	-276.5685368872101	-212.1509058839413	-174.1551136826887	-157.6733934253796	-156.4707364442156	-155.3470688589602	-153.8148284306819	-152.9709468232332	-142.8204062906189	-140.6279021402019	-140.2977391529352	-140.920412803963	-138.8142616184495	-139.4812411882362	-145.8872112365845	-181.0894613080143	-223.1155535928512	-161.8898311340669	-136.7724364254495	-136.5108637197459	-142.5441716637202	-144.500030745985
-241.5771593924505	-240.942278343226	-239.5457985305906	-238.687449170131	-238.3795666114332	-237.6656976484999	-237.0563919581735	-235.357132801021	-234.0933128418835	-234.3437127249053	-233.2057715548229	-232.3120287434719	-231.9827046813363	-231.2687052848138	-230.1183625483505	-229.0982251423868	-227.9327061613709	-227.9724913705012	-227.1191800074276	-225.8292021848397	-227.2161232904606	-232.259778233366	-232.0631792415228	-232.0895950077519	-231.3270906202156	-230.4437469232099	-228.6578131637805	-227.1820860524579	-226.8238279665	-225.8007187497805	-224.1367878267247	-223.7817594543014	-223.0793849514235	-224.0780156371547	-218.9197199446707	-218.6874029001628	-221.1956675016301	-219.4160627356805	-217.8552114031535	-216.2215069822136	-217.0383918010808	-215.9069085758677	-214.3842268546039	-213.6678381518777	-213.6921225146819	-212.1740267198412	-211.1996818791142	-210.4217418620464	-210.4263930052641	-210.4634005718228	-210.5301173527399	-209.4592160831481	-209.6609835059666	-208.6927734905355	-207.4773280888225	-207.0631377082612	-205.7103827920325	-204.9049286986258	-204.3806849771089	-203.4059518000139	-202.5718868023585	-202.1617013258681	-199.8673448464215	-200.9730585445524	-200.0593593940415	-198.9984036856324	-198.6059141934877	-199.1431419859376	-197.169843339906	-196.3622593252744	-195.1740686149216	-194.1018111324412	-192.3827883221129	-192.6313799212833	-192.9067104062562	-191.7716743479351	-190.1821468943647	-190.4018682043077	-189.8080648425072	-189.7186778144532	-188.7715224482918	-187.844776974453	-187.3392623305969	-186.5800528733898	-185.8412518263055	-186.3436034556215	-184.874980528315	-182.1578443200131	-183.8054354716118	-185.3627991878254	-183.1507907692114	-180.801601787471	-179.2019331223341	-178.4930369399922	-177.9900405537291	-182.442216224243	-177.4932442095565	-178.1167582679152	-176.1856341372177	-178.4829609452202	-181.0395363695172	-192.7782481428135	-176.0915322313511	-172.2458193917972	-181.1089670584113	-179.7738429097337	-181.626752835059	-177.3549653363204	-168.6947486194292	-168.2047333396993	-167.2739192271949	-166.3194669910332	-166.0708753918628	-164.6770427882099	-163.830706657763	-162.7635509072634	-168.9994014645924	-197.8238418031595	-168.9306170148452	-171.5924671676906	-166.9248967286781	-168.6751791344374	-168.4409900714834	-167.4883446369732	-161.9418874759888	-162.0279158391188	-155.9240803783406	-150.4061051702155	-124.9684278187195	-151.0457648318474	-156.8148513789358	-159.7050136722182	-171.0531731886105	-159.3114910867584	-164.015359118588	-200.5734648683916	-156.9903957215093	-156.9511278001364	-179.7609255377952	-206.5934671040594	-168.7991844228465	-153.0177709995852	-152.5371217408856	-153.863074036717	-152.495270345125	-151.3893624788101	-145.2745468813342	-140.6005184974524	-140.4097312113315	-144.3773816704644	-137.2368111294866	-136.6871832528558	-140.3345525513098	-144.0488980156597	-157.0974149993143	-175.8685812078736	-158.9080214579161	-141.6586965632898	-133.821434273767	-139.3324357314652	-147.1666609934376
-245.1594260256549	-244.105122430299	-243.600640879758	-242.5967795106567	-241.4815071055114	-240.4543944669209	-240.1014960157226	-238.7853618118843	-238.1816751412962	-237.2389767501684	-237.3553620490038	-235.8510225512325	-235.1990265400144	-234.7143071604494	-234.9300250485214	-234.0263366759877	-233.4196796768436	-233.0738216750668	-232.3526528777334	-231.3423335637628	-231.86231596063	-237.0114398002678	-236.1990771732289	-235.7339924954502	-233.1361466977448	-233.8795321890524	-232.4320943446048	-232.537821144116	-231.160587696899	-231.0071963137049	-228.591806356605	-228.3749916406232	-226.6210911849612	-227.2909136141142	-221.3033982353766	-221.6635935565753	-223.4811100310092	-222.7685972809645	-220.4907110065644	-220.263110322069	-219.9403079393973	-219.6075614777429	-217.6455008711877	-218.0695078615423	-218.2814150137275	-218.2728256654333	-217.6059735648362	-217.0182412937368	-215.5269481192934	-214.9365671570117	-213.2579105781661	-214.0231259092796	-212.5294449108324	-211.8755101821737	-210.5662207773729	-209.9750008899602	-209.0357248983512	-208.4888109296974	-206.9720061309505	-207.099693203857	-205.7357639827466	-204.9040245567001	-204.4047751717292	-203.9629417634397	-202.7631913762368	-202.246502427499	-201.7404052790908	-200.7269214683803	-199.928313656211	-198.1761592320055	-198.3384630830672	-198.4465806709819	-196.8381937061614	-196.7524232458102	-196.1173480284015	-195.4459114835811	-193.2689733962849	-193.3446041272695	-191.7587569759967	-192.0342816291536	-191.0764707280679	-189.9372370796917	-189.3703000728834	-188.4522091641334	-185.7528341569718	-185.5173540979239	-184.9117301920949	-184.6618461146307	-185.3550487646623	-184.2000563671812	-184.088903233916	-183.3087028620339	-181.6389602332557	-180.9591907607201	-182.4481583635547	-187.3005754315763	-183.2284224700315	-185.0316668418384	-180.8619243581136	-185.0336678116739	-184.7281760413796	-189.8244046139644	-190.371577967597	-174.327558745317	-174.5598090908303	-174.2124659247754	-175.1970809284584	-186.4302780578986	-170.283760267442	-169.8295905095663	-168.3606444626863	-167.2387851612823	-166.2981529567848	-166.3088751907036	-164.9072921638877	-165.1904368066184	-176.3797800882625	-201.4423408123862	-169.6018593914815	-170.8435278734395	-169.9217551801921	-169.4903194040481	-167.8264536977869	-166.4110491571068	-166.496819617458	-170.1686022301058	-162.868956069401	-153.5314244029724	-151.8991414117157	-148.6246921204146	-152.8559829540812	-159.5580802338934	-159.6495334485776	-158.8443387401497	-159.9091051844457	-166.9845745423737	-165.106347160929	-160.5060093083913	-194.1020053006253	-189.7890111630731	-155.8937249248352	-154.0765315699747	-151.1449684696947	-149.143770375356	-147.226596709912	-141.5437979109323	-140.8750085750944	-139.5479594513531	-140.3715601178685	-140.43104376338	-136.5697663429052	-136.6619295313311	-153.0382446265026	-155.6307307894485	-167.8178628672929	-146.3534579590678	-143.8439660961013	-138.8259517288888	-131.5527198522131	-134.778342515127	-158.4513971770421
-247.7716743595766	-246.9272754643705	-246.7746592717127	-245.6051991212206	-244.455372190315	-243.366645984988	-243.0864064540185	-241.6830803601458	-240.49760355777	-239.4450430294709	-239.1636414537968	-238.320211917311	-237.5486675927176	-237.1572764106827	-236.1525108996557	-235.7823033182799	-235.1346338485064	-233.7098010344011	-233.293479250415	-232.804110209832	-234.4857371172336	-239.6333120579987	-238.9341035340606	-237.6281075773892	-237.6833936328457	-237.4537252795201	-235.9364046752157	-234.3104506774388	-232.711364516854	-232.4117496690768	-231.4335288756683	-228.7520440210365	-227.7211858633539	-228.5712675128929	-224.1969177113832	-221.0614587492596	-224.485488687868	-223.8327174861136	-223.6706700556309	-222.2868497121552	-221.7356714544518	-220.405392617176	-219.5201116849296	-218.3520729641207	-219.311240078095	-218.2985951925156	-217.4583301527697	-216.8184763229538	-216.165187833442	-215.6282846427654	-214.5643571236005	-214.2720406280235	-213.0060892654611	-212.9892322062465	-211.265623469495	-211.7545404391151	-211.1914793849883	-210.3683293072359	-208.8799442089535	-208.28471793527	-206.3986111792729	-205.4592077184744	-204.9102260809905	-204.2013936332434	-202.0719911782406	-202.5488934356481	-202.2288701777481	-202.0601068996173	-200.7068346956311	-200.2790807039845	-200.208876306754	-198.3208308333162	-198.5776901434072	-197.2626527674788	-197.4447854885109	-196.4774158804106	-195.8420175434286	-195.4498511708574	-195.5514455971082	-193.8694303533385	-192.3314419539326	-192.2177068284795	-191.1051468491112	-189.8046409607886	-187.7411815783666	-187.675626842154	-186.02286874178	-187.047978928335	-189.2322791024262	-183.8955976902021	-184.1871389952428	-184.8074885568617	-183.6607623881012	-185.4851251437725	-182.804609647861	-183.0262044584501	-175.0716542103661	-173.9314512032696	-174.4218533371677	-179.266583716621	-180.808963874266	-186.0531589784907	-189.4690516397679	-178.3076745054254	-177.4211663116799	-176.7948108761547	-181.6247503830235	-181.9651197986515	-173.9412040784681	-172.6211939219484	-171.4610997924866	-169.8018185304486	-168.397652029245	-167.9228159584677	-167.363500423433	-169.14471930505	-195.9255276489656	-206.707074760323	-171.6248888078262	-167.5004230837805	-165.4619580379045	-169.9318296927641	-170.5559899902698	-171.0288250912115	-170.9201902155393	-177.4592069715537	-201.3996490092946	-212.7835265783517	-153.7851829509182	-154.1336896438774	-154.4061787516839	-154.0814391337714	-155.3716111245433	-155.5478017062637	-161.8848583534755	-170.4435458609106	-190.535239513747	-188.8304250714511	-206.0773606598738	-213.4004522582518	-157.1449506316078	-148.6748097448958	-147.1735710092697	-146.147556680789	-145.7896217144046	-145.5410301152342	-145.6830545075624	-143.1667163633586	-143.7158921690266	-141.4933556846777	-140.1551322560548	-140.6930048054517	-164.9610930550662	-168.3985561711707	-147.0881236684919	-143.8521033734326	-145.5799749170337	-142.2428122666864	-136.260915907687	-135.0803466691078	-146.6831051407769
-261.8895437139504	-262.1886412739701	-260.6788769246447	-259.2355729356574	-258.1637023073452	-257.978468824168	-256.5403955185508	-256.6053692324112	-255.9427799386637	-254.2364818142896	-253.4713302177709	-252.9707231377115	-251.6087963686365	-251.2648756021004	-250.0248227180097	-249.5546363082503	-249.349253799929	-248.0440330337938	-248.0559173124172	-247.4816819534086	-249.0929755121902	-253.911161174025	-254.1154468544366	-251.9565930878541	-250.7475418964156	-249.4136450092372	-248.0014716642916	-247.8690697135725	-247.1208403930631	-246.3826855851257	-245.7989567358973	-244.832683955707	-243.5774548270634	-242.9790640566401	-240.4973441727912	-236.8209118991256	-239.4723629376257	-237.5905189884782	-236.5180036032191	-236.4005214764739	-235.2981012264723	-233.7338912290213	-234.4297410880354	-233.79815496914	-233.135888794966	-232.0775165609445	-231.6883205169291	-230.9642466078346	-230.5323602429276	-229.1612616210064	-229.88449660497	-228.9049848154676	-228.2631285336163	-228.1614688905708	-227.7913917427842	-227.1859620051393	-227.0041524036807	-224.6580627018856	-223.1257585390125	-223.2848341587395	-221.3630745668723	-220.385436278016	-219.5191423262093	-218.6202340482828	-217.8386774635123	-218.237626382726	-216.8327499077808	-215.4692727576332	-216.226868099173	-214.3344308674962	-213.4113671781548	-213.4537358616729	-212.2063208907872	-212.2614765126544	-212.5165912734888	-211.3973791810672	-210.9549010158307	-210.7901411595709	-209.3345645555922	-208.3250204321579	-207.3890393708782	-206.2673727554583	-204.9702907488543	-204.8131523643682	-203.3896757631515	-202.7584764984243	-201.5066682870996	-202.1969006085754	-205.3536736049474	-200.0053658168788	-199.9657095591378	-198.9883929076551	-198.1660832372336	-197.3048924996075	-198.1954693320186	-196.4153487605114	-195.1583750826113	-192.7282594697216	-191.2773325267608	-198.3336192538653	-191.8943234234556	-193.4567903538499	-196.4922067529951	-191.1258146442127	-189.1812573360192	-187.8215909217585	-193.6045627173058	-192.5345655896396	-184.9571344209635	-184.1386992210237	-183.1113286796544	-182.2767478764415	-180.862893716834	-179.7264377110295	-180.3610593752754	-183.517703420258	-203.6651351995138	-228.6273287588858	-181.4986136911896	-178.270409036088	-182.4644996172117	-186.0364323528653	-186.5196650859526	-185.0450348025398	-181.6706718996496	-181.7763986991608	-213.1262200833886	-229.4128887655274	-198.4205517589211	-169.2397905696369	-161.7761597432085	-163.5311570267803	-170.4814575693949	-172.3458634369755	-172.9787420341646	-175.0126878526121	-188.4378703625118	-202.244823095037	-212.3282585103662	-192.3053493072769	-166.0896696863182	-160.7615124055937	-159.5530422365074	-159.8014396674938	-159.5562067332473	-159.8093842588409	-159.3857641226546	-157.9793387488366	-157.481057240386	-156.4419951063776	-154.5422610047005	-154.7854929691113	-164.8903698878783	-186.7247896914951	-186.1904699752063	-156.6509319300069	-151.8149850670318	-150.6950630008685	-147.088706173044	-147.01611098741	-151.4076409677079
-244.9889181982674	-244.4176546500146	-244.0202561118734	-243.0986775868101	-242.6820979000451	-242.1977668568481	-241.8167080901641	-240.833579732959	-241.0781664280585	-240.0659098788471	-238.9490233580344	-238.0348706543608	-237.6996696697081	-237.0806125863831	-236.5769699609731	-235.5342927414618	-234.9043192560339	-233.8085526012855	-233.5920595226772	-232.3964429909347	-234.6679350550603	-239.2591010547519	-239.0527477055102	-238.3495342775013	-236.5120614639074	-235.1011776328558	-233.0742085292349	-232.2615227826226	-231.8133603808533	-230.0515805506387	-228.5051969711227	-228.9620791547755	-227.9837931445724	-227.5398935496527	-225.4722350949758	-222.7786732757365	-224.950313980668	-224.6965554327222	-223.4707123988637	-223.4714223726054	-221.8781493999428	-221.9472554870635	-220.5860401739301	-220.5426383970969	-219.4685074139705	-217.9450505021703	-217.645242968409	-216.7901870560787	-215.9678773856572	-216.4113901264087	-215.9046482210535	-215.0668377043059	-214.9146721004111	-214.3221597347046	-212.4778406398733	-212.2794318819788	-211.6070911952327	-211.0472583724406	-211.365086492321	-209.8083690152542	-209.4681285510157	-209.0406991611424	-208.6940644866293	-207.7300535434531	-206.3685151107462	-205.5189492667648	-205.6041387047638	-204.1521134516932	-203.3365211111198	-202.5660736144362	-201.9245404521583	-201.2346964670507	-199.9989716066043	-199.127318020038	-199.5238761508483	-199.3955443209948	-198.1293335734537	-197.4189522268339	-198.4045351070373	-196.9238352151233	-197.0672810371347	-196.586049273883	-196.0135584641311	-194.8844008105268	-194.4377235730354	-193.6037237921747	-192.0269195423587	-191.9188019544439	-191.3993353631344	-187.231402645461	-189.2931841776209	-191.1323378058767	-188.2503780067202	-186.7490103197047	-186.6764788686654	-187.1166329444929	-183.976201201778	-185.1633573366159	-189.2887924193818	-196.8503358875635	-183.5403736673949	-183.0177425793455	-182.7791617581524	-183.2607803755723	-180.9774040328234	-180.8052820897686	-185.9556984077001	-187.8649926985917	-180.9165641744232	-176.14946697799	-175.7029824264827	-175.3567375705376	-175.5814316610719	-174.4711972533126	-165.0921373106968	-171.3782996606912	-184.4625984316052	-236.2360847397875	-185.7384953553502	-170.2018005429775	-170.9021711116201	-175.1253898847501	-176.0366345122627	-174.4697773058292	-171.1052947473272	-171.3697740469918	-197.3537191279948	-211.32543023458	-208.3117162060513	-167.3063423495304	-143.186995822092	-154.4148970513674	-161.5225938812469	-160.5924912246841	-167.4123270518204	-164.2738325443462	-165.6090841622134	-188.6012087890884	-191.6104673247833	-165.5189871604177	-161.7669878903623	-155.9607648253258	-154.7103143090896	-153.1365456046241	-152.8997078504878	-151.9085696851409	-152.2210381702618	-151.0453127608846	-149.9436039668245	-149.2826302709443	-147.8757513439635	-146.8186063714412	-151.2392008091506	-172.2154002036971	-188.7935464562818	-153.7360332029574	-145.8489111917321	-144.3231301905229	-142.9685669904428	-143.4103989165324	-143.9015762409668
-244.362820665521	-244.4862449315778	-242.9792582248241	-243.0274386140646	-242.1384758973207	-241.4178896045396	-241.0440654554609	-240.4053099357548	-239.1349653327535	-238.5576306937996	-237.8176690842107	-236.9256056053218	-235.6606873360745	-234.8452876814852	-233.7806516707784	-233.2728114553135	-232.3999943418428	-231.0912222247996	-230.5129197093253	-229.6486282095539	-230.5325529289118	-235.7914099543315	-233.739833368333	-231.9780535381185	-231.6763087691163	-230.3901416824153	-229.5620825586664	-228.6775768169563	-226.9330423823246	-226.4246848791021	-225.6303413559824	-225.4311574075516	-224.441634840072	-223.1786538060655	-221.5114294348803	-218.1535352548368	-220.0395130594445	-221.0175396846689	-220.3882124383879	-219.061292266036	-219.0754368994736	-218.8169634737153	-217.0193381216467	-216.1314737150126	-214.4827205187095	-214.5522149421984	-212.8133647440995	-212.5951923330292	-211.8709894725452	-210.1756047858743	-209.8167004607696	-209.1915722867435	-208.3569262667358	-207.6773509623843	-206.0714185205621	-205.1320787943583	-205.4867203126134	-204.8071464904617	-204.7003851154355	-204.4319009116999	-202.7707476312158	-202.3150274922675	-201.9490189831467	-200.3709874718315	-199.4988165975077	-198.5200799985417	-197.2313931720477	-196.8509821267104	-195.9106730417864	-194.5439676603042	-193.5950692270859	-193.1373466361022	-191.4397668114117	-191.3700782197388	-191.1804544605224	-190.3427728951642	-189.288534516603	-188.538754815021	-189.3600313921273	-187.2839110583458	-186.2325155391509	-185.3731968199709	-186.5245726497492	-185.2409253028412	-184.4576893856086	-184.1604653262349	-182.607362934671	-182.0978433867441	-182.4637244266755	-180.8442921083627	-179.8557388996034	-177.3466338908051	-179.0591335394695	-177.361359546595	-176.4448827535123	-176.3542047293644	-173.5377344496258	-174.315609249899	-178.5105402383537	-180.0586031503317	-172.1379611888611	-170.2177519780666	-169.1939342698054	-168.4545536825688	-168.6632948558141	-167.1838222253992	-175.6681062633489	-175.7861056778515	-170.6440860222299	-165.9495825292308	-165.0358833787198	-164.1178562045646	-163.7114162471664	-163.4632115021642	-162.1337078554247	-162.4917080386038	-195.954592106377	-226.3471169128768	-162.4873162803647	-156.4113817500935	-154.9870647415459	-160.6241376742833	-161.8554070418959	-152.0809510131744	-139.6148704004543	-150.5671180251833	-168.291667326955	-191.042885561028	-193.7935417195752	-185.3874704047979	-154.984933338121	-154.746740853296	-151.061782965931	-152.9241211646814	-157.0000196453184	-145.0600577369612	-148.6472319339622	-153.0011081085545	-152.9454351989298	-151.3358209726102	-150.2241014005728	-143.768916387469	-137.884932670223	-136.7097245486033	-136.071225449476	-135.3388838294609	-135.0772459069627	-134.5194807530006	-134.0310158543433	-138.840612167884	-135.7860783547098	-130.5470501992605	-131.2955374225488	-151.1287576496269	-166.5181973863012	-139.7452046823433	-128.0060408380842	-126.3710439388505	-126.1698590205842	-124.7138940802375	-123.4100962259854
-249.164149268141	-248.581195609449	-246.7079410085957	-246.47620646864	-246.2730190983382	-245.4656277696908	-244.6690876263515	-244.2815071802034	-244.0298148188879	-242.8571264370611	-242.2431058689221	-240.9568098308317	-240.0296775028248	-238.95102432787	-237.6021453643228	-236.2152879932966	-235.4133229984032	-235.0481534144134	-235.8381703960887	-234.9158804150838	-236.0452974536667	-242.0869368431563	-242.6237110824435	-240.5443625173272	-239.8270696726753	-238.2518810207266	-238.1210294510801	-238.1349799163337	-236.2341475045467	-234.3101927746601	-233.9027197239467	-232.3535570196591	-231.4521942187344	-230.3552640370816	-229.979115798594	-225.0849125516065	-226.8855719668258	-227.0956708351596	-226.2222726993366	-226.5561174711008	-225.0752234110028	-224.1092752325858	-224.2980600666711	-223.8231587790992	-222.2070213911156	-221.3290388110694	-221.4737104123801	-220.456157963004	-219.347537670912	-218.3478738918658	-218.133577433477	-216.5795071653926	-216.8101448774385	-216.0452511836985	-215.3498533956473	-214.3580052565588	-213.7180862099482	-213.184670635585	-212.5423608005709	-211.4040965109151	-211.7653916244234	-209.5817362072792	-209.0415380862735	-207.5141414871971	-207.1193916402382	-207.1859157351712	-205.5781097927029	-204.4060024332283	-204.0228774799141	-204.2575186138309	-202.8718247697092	-201.6483058252597	-200.8905815323305	-200.579276574114	-199.3502038267209	-198.4503261900742	-197.8282335613986	-197.276862617711	-196.1964663756995	-195.237751332688	-194.769179038596	-194.1085284622891	-194.3536324451462	-193.6391157608661	-192.0710312929335	-190.8163817044424	-189.6173412909812	-189.283302351033	-189.0630637533325	-187.5048611119878	-186.8354255370029	-186.3231935632989	-185.981533151577	-187.7401470028516	-186.9472886440098	-186.2044841750546	-180.491458873959	-175.8692926638151	-192.0509445201843	-195.8561621768662	-199.3588583918097	-197.3346669307606	-187.0888609653753	-185.3516248829438	-180.2905318584715	-179.0791550954241	-184.7181000466077	-185.9629330253056	-174.7761732180492	-173.7970482827151	-172.6282343713698	-171.6810790052084	-167.8987257638474	-170.2822098863694	-177.1408630461156	-201.5454856197096	-260.8378873275769	-238.482001445015	-174.5467627675025	-172.7514644692426	-168.3498584941727	-168.3634221052581	-165.804522591552	-164.302831784963	-164.2587185521884	-163.071045129593	-169.5578128577014	-188.4055776737656	-214.120844382849	-234.3228522438197	-202.9936334378988	-180.302802991263	-159.4624279469542	-159.817328850188	-171.1421733624964	-169.1263770815573	-156.1916604401505	-161.2373178350913	-163.5104892316789	-162.2373684683057	-162.368672108915	-157.5148350934101	-151.7517559024281	-151.5308058487861	-149.1015306432273	-148.6093202254778	-148.1746562179991	-152.1660100175841	-156.2725870712998	-156.2587655574357	-156.0692692674088	-150.9054835065759	-142.5533420343666	-148.8053381949688	-152.6195335363129	-146.2662023344385	-141.3222031003433	-140.7540388320359	-140.4150271114963	-142.656292673506	-145.2286905815027
-246.4116196089479	-245.1919766171798	-244.3889133121766	-243.69151307209	-242.6459292586175	-242.2009313535881	-241.8781304531163	-241.2145732828484	-240.4835878757218	-240.5870543204188	-239.4126213893353	-238.604972157909	-237.1443590387443	-236.8913104645402	-236.4768621812001	-235.8371358205737	-234.3710326330601	-234.4420774376216	-233.2836611584218	-232.9617643998758	-234.33014911382	-239.7233453251995	-239.3577236702468	-238.6877070729097	-236.7802225480695	-234.9422324467181	-234.0326019348728	-232.1711663958482	-231.2790391823645	-229.4084332726935	-229.0476554469427	-227.5704416891423	-227.815999225162	-227.3533690703815	-226.3276778614743	-220.4332935476831	-223.1616040608667	-224.3133667448132	-223.0917213010098	-222.1998519903048	-221.7500754728681	-220.525845072477	-219.5870878508254	-219.9833880788569	-219.591802728638	-216.7098429294815	-215.7218040440799	-215.2423820468794	-214.603690261768	-214.4143881399252	-213.2884601998555	-212.6762479155679	-212.9086286946705	-211.5253241567525	-210.9809284456917	-210.6344894215625	-209.8889073100355	-207.879505239371	-208.0055129798155	-207.0287136160902	-206.2549074544827	-206.5753842655455	-204.6960585739911	-203.5691597930012	-203.6369763662279	-203.2265952393537	-201.1925219517166	-201.3579265649235	-200.444938870354	-199.7775057474047	-197.9837563480175	-197.4993615702257	-196.6951999551128	-194.9631308214567	-194.0549854738894	-193.717006846665	-192.7974959904316	-192.917883228938	-193.023223174281	-192.8579475124637	-191.3282920407729	-191.3908749662297	-191.4078609768338	-190.5196097160315	-189.9095940519635	-189.0936133750219	-187.9936476480186	-187.4536436951969	-186.6354026634411	-181.1937029432476	-180.734238767407	-182.3899019795423	-184.2767839260757	-183.0964088556806	-180.7569075323441	-179.9539094441355	-177.4398968715406	-170.3693365596092	-181.3023378189199	-189.8305409214602	-188.7463991603564	-184.0230905949246	-182.3113009200018	-183.1423303723066	-179.4001477120445	-177.0831876844555	-179.3531293675085	-180.021595583773	-173.7299431654298	-172.8177943959915	-171.2550695628184	-169.2834502492489	-169.2878420074879	-169.7370389847723	-177.5126210085641	-223.7094873882409	-269.809539436274	-202.5176338402171	-170.6991126927077	-163.9171233572611	-162.0966350720714	-160.7152040347993	-159.3543103590395	-161.209674807363	-164.7488627833076	-162.1317706201839	-167.9524614382314	-169.179337565405	-176.9689990058397	-230.6158688662647	-259.7700216033357	-162.242987488044	-152.2186473818583	-150.0508159306137	-157.0602784813663	-168.0824073837522	-152.3766899082701	-158.8883867561297	-159.8562099173927	-159.13174767193	-158.4200086302217	-155.9872458083495	-155.7015814258259	-149.235481492819	-141.4814714060545	-141.6376404318203	-143.6164291462006	-148.9667393863046	-152.8298903074255	-150.970716605415	-150.5983776206143	-150.2664700840909	-146.8101459745365	-143.4110451556793	-145.6910628335043	-137.1132579120404	-135.9990186002101	-135.4283360743096	-141.1660340745775	-144.3312037332595	-143.9558292031083
-247.2340597129586	-244.7799176400434	-244.6444801439738	-243.7885215719177	-241.76090622915	-241.5548774816817	-240.7140314195836	-239.1194007518326	-238.5453595610081	-237.6242331069076	-236.5139334823535	-236.8017944850967	-235.4285644597507	-233.9032355295044	-234.3171027904921	-232.3462586674589	-232.7133017520948	-232.4523738033382	-231.1702768375027	-230.754084004906	-232.0536205345083	-235.7737777045805	-235.4593719842189	-236.8383499806925	-235.2372613680722	-235.5459828519011	-234.5850711886701	-232.956662667895	-232.279283983763	-230.8679480817485	-228.5062937990326	-226.8436553542705	-227.0149368899944	-225.0020486852163	-226.0657153372027	-221.2349369052029	-222.0163630563842	-223.8165066660459	-222.0165572245682	-221.0965928151722	-220.9559246357325	-220.441884378177	-219.0038110725599	-219.5509829439926	-217.5776205633663	-217.9170858370685	-217.424681251135	-216.8131152059944	-216.3134774846553	-215.8312778448831	-214.3759606258832	-213.2244543625156	-212.8495971201219	-211.9057366842896	-210.3144009468679	-209.9777133157373	-208.2555897432638	-206.2748000590479	-205.7656673652891	-205.4715425858607	-202.8618139917319	-203.9230276029198	-203.4810652432409	-202.917421684562	-201.9591587125134	-202.3806474452748	-201.3810488830232	-201.3711670564353	-200.8137250220467	-199.5986027399072	-198.8820850857916	-198.5426198120893	-197.4268316013864	-195.6472905700315	-195.3133168468779	-195.6381839339799	-194.5579181255576	-192.6325419659878	-192.5906905702272	-191.3481831631382	-191.5485943730681	-190.9711945173196	-190.1254408914249	-189.2678667215015	-189.4850045570568	-186.9014323441784	-185.8821353455456	-185.3693223494894	-182.5538866452658	-183.978719459371	-185.7379795497926	-183.843799251059	-182.7663748198032	-181.1787193846789	-180.8927318825818	-179.8136933356587	-175.9132754630005	-173.1334258956525	-184.6631385929245	-188.1157157011869	-185.0872745346684	-182.8711322605941	-179.3632053622805	-175.8530166269527	-173.6878338668904	-172.3021385405688	-173.4256134398401	-172.6145418088951	-169.2833865146541	-167.8967870464068	-167.9642152832654	-167.7993279578161	-167.6627921516368	-175.6529285365962	-214.8544132643632	-265.1795575861723	-257.073166335967	-172.1357645686417	-165.9765141010175	-162.3059587498689	-161.9343312210098	-162.5832916868773	-161.0729463151996	-158.0293926387231	-165.0535793630656	-168.5875351734401	-169.0780025241328	-167.3780971278335	-166.2290453874641	-197.3572067443082	-254.5630934506483	-240.9318792288806	-153.9353461027776	-152.6321277886779	-158.32487363104	-170.9063687016751	-159.7875544190349	-159.67420614775	-158.2660999592701	-156.7733868373434	-154.3874481918232	-144.1817505551417	-143.8187775913713	-142.2868602826665	-142.2152344557527	-143.1383633618887	-148.1062586224201	-151.8645231513607	-150.9404248865044	-150.3708406707136	-149.6348172662011	-149.0127898543201	-147.9734698175329	-142.6961416172311	-136.656504679777	-131.9965557125381	-132.5749886616017	-131.4161203114391	-139.184338766236	-143.5201958369092	-141.6214948285471
-249.6599762535933	-248.6479776071608	-247.4745125525978	-247.2458135579926	-246.7410741046728	-245.7120242308415	-245.3527967861633	-245.0167553941797	-243.9916452076247	-243.4189602296887	-243.3585072254569	-242.2857976720136	-241.320429033749	-240.5047714763809	-239.890300319479	-239.1066775480782	-238.2438074779901	-237.2644883744719	-237.4790442178394	-236.4911995006218	-237.5081724098456	-242.6997301497961	-242.1394452560411	-241.5980198735362	-241.1325483415893	-240.2647054909098	-239.2135678744938	-236.9968445780673	-236.2004971207122	-234.9635449987666	-234.4808932880316	-232.4021257452677	-232.5548071547201	-230.8069155373643	-231.1426975443693	-226.2774935379985	-228.9824223481037	-229.6712984566909	-228.5512459569384	-227.2536481447767	-226.824666891631	-227.1342925173856	-225.5805453688747	-225.476174782252	-224.7627564080817	-222.6574441476992	-221.9050172371348	-222.8207825742759	-221.7834012549293	-220.9627709169699	-219.6091755934102	-219.7584983379387	-218.158960106391	-218.3999302337877	-217.3659727961598	-216.2131755366983	-217.3617099893101	-215.935390528727	-215.6853774998734	-214.9169324552253	-215.2165473030026	-214.0062688500649	-212.4967638857182	-210.6571581864995	-209.913578527008	-209.6073115661774	-208.7280379900374	-208.8642491944433	-207.4548520098696	-205.6743431019943	-205.8482095943057	-204.8770277681188	-203.8745878287007	-203.0502757062438	-202.1096449839462	-201.776444969129	-201.3327380601935	-200.0290039405361	-199.8814242630645	-199.0445178882426	-198.5081305031237	-196.5154565402844	-196.5629921725779	-196.0512122698366	-194.552814911377	-194.5367982594933	-193.0641066935212	-192.4104950844359	-190.491385665951	-193.6450579001778	-188.4771397660845	-188.6347939561283	-187.8460042359522	-186.9981829412273	-187.9490186096863	-187.3691004963447	-183.040089706909	-170.2668379914327	-180.169756283597	-192.5191299601081	-185.1713019279629	-180.9189549628268	-181.4721341903658	-180.1290669325409	-179.1786181182501	-178.8934710234839	-177.7745168338411	-178.2762207418104	-176.6663486127119	-177.0981075084294	-175.4888164016832	-176.6069939185898	-182.2759074691105	-184.3920709148013	-189.0844415221757	-229.1586781466188	-226.1155765411051	-180.8258209334807	-174.1677716696485	-168.3659403628511	-168.6667187375327	-168.7770951980618	-167.6081523353272	-166.6925796841702	-165.7213993401832	-175.1398576377611	-170.5524371571618	-165.3592015669491	-173.0977745419823	-176.1758175274244	-225.2769270992265	-263.3864544259321	-226.7101565756417	-160.5678837423063	-164.9749783035251	-163.6994682339483	-161.7304976115611	-164.7342660789072	-161.2662518589134	-154.6805398779365	-152.3657749883671	-152.1355256126893	-150.2445098106957	-151.3717954458538	-150.8725445786829	-149.3880991676767	-155.8917224727998	-159.1930396012929	-156.8520531136785	-157.3037031317612	-156.9509336319523	-155.4538287517865	-153.9348940318147	-152.8284703599422	-146.2100121370563	-140.3373939284763	-139.1164599406144	-138.5884677356055	-144.0121483518798	-157.3161032159422	-162.3700935385982
-249.9621745757582	-248.8031772742063	-247.9047862840373	-246.4081972094291	-246.7167245250739	-245.5606990342777	-244.1230125828288	-244.1257250086059	-242.8630033595781	-241.7972690387617	-242.0543862516314	-240.8552154045809	-240.6526090566314	-239.8693094048041	-238.4201270110999	-237.7262143873266	-237.3707324617406	-235.3633328431116	-234.7315525560321	-234.7681080516279	-234.4097195320808	-240.806906063951	-240.8204681928365	-239.5335911323938	-239.0448031141632	-238.3469508031136	-236.5317599002885	-236.4397241810522	-235.4449057134077	-233.7422878913313	-233.5350956169586	-231.8182042100552	-230.4655782452159	-229.9503092439614	-230.7711337501049	-224.1564225285111	-225.7708805840327	-226.7912106759805	-225.1846334772113	-226.2580530043962	-224.4860697102202	-223.9936651242867	-223.4537901228544	-221.2579287897134	-220.9326081494487	-219.8271538362965	-218.656079570137	-217.8302170666076	-217.1806103615931	-215.2579481100002	-216.132637241917	-214.4283400873786	-212.6444725145793	-213.6032527743854	-213.7166010456702	-212.7553662628659	-212.7791985547073	-211.6923443678265	-210.9633614127354	-210.7301402263018	-209.6891423392524	-208.1767307809446	-208.0694536003608	-207.1619544919403	-205.8064856677346	-205.6059469886152	-203.5149720476545	-203.294927618138	-202.0844549970163	-200.7745860520632	-199.8099926043348	-200.2547963411803	-198.3660423762007	-198.7179714686787	-197.456282912966	-196.5893442042122	-195.981459943569	-195.5061703196289	-193.1491019633362	-192.6620584943621	-191.451456921851	-190.3675730635261	-190.6035704103315	-189.9021667483738	-189.7818417622623	-190.1635467680933	-188.8396606588921	-187.6032895592988	-177.3663975439809	-181.4632217224982	-187.2500042539323	-186.4678014300148	-185.3106138945141	-183.0912419069052	-184.0693337489242	-181.3494851148452	-181.2425947884296	-183.0288516674325	-186.2380041252999	-187.9338408829336	-186.3443134293632	-177.3824141958647	-177.5156565539146	-176.657501361639	-175.5307315320385	-176.1883480451947	-174.5577429042001	-173.6343560952853	-173.3618669874789	-171.7668494655596	-173.8596964249665	-178.6939002208849	-179.6000416342169	-178.2884281400072	-182.3347448754751	-179.0991129167839	-177.3023279720462	-177.0054907668407	-174.4908956896937	-162.4539252815088	-162.1435896820126	-161.8915104665288	-161.8647063639316	-161.2847245159954	-159.591534967344	-167.4398411281592	-168.8886366676952	-167.8574553904391	-167.526773633215	-165.9696678197801	-174.7323831048479	-234.2682761621048	-286.9352458966594	-212.7518134297579	-159.3847310293395	-161.2193624657669	-162.0420604725564	-161.9961389559303	-151.6077290580644	-149.9868767922683	-149.840911230464	-148.0355369374321	-146.876152781712	-146.7544730649118	-146.2414006838768	-145.838448342792	-143.6890880664294	-143.2111512335069	-142.7676384927554	-141.2352705952876	-147.1354651326013	-150.0749713420286	-149.768510213014	-149.2899923577392	-149.2446533456653	-147.9734060829381	-137.8796352878584	-133.9854189394905	-139.0665987367121	-142.2292501378009	-141.5336581815657
-257.3207248418223	-256.4992540965318	-255.6019599342728	-254.6174738819792	-254.1479989281613	-253.8377270632599	-253.4485962360392	-252.7341447685538	-251.2476316887176	-250.6806946819093	-249.6831637884877	-249.2716206169089	-247.9378541633197	-247.3352005860466	-245.7463831062179	-245.1213838835812	-244.2178896792316	-242.9366316385272	-241.760259990003	-241.2528081109062	-240.814268150746	-246.2949778895336	-245.4003309362569	-244.7352248671163	-244.6248469243873	-244.2973311461031	-242.4874998780375	-241.9251487976523	-240.9945925879267	-239.7680380981267	-238.8010553441947	-238.6277713564353	-238.8513034022652	-235.70990230083	-235.3800609509368	-230.0926582380629	-232.688694269717	-233.0180835486474	-231.790753868311	-230.1125508426281	-229.7679838369451	-229.3706505155985	-228.6247452844981	-227.3270170387472	-226.5393908454755	-225.8722156253048	-223.7883463505601	-223.5518969327919	-223.5137910561234	-221.561031253804	-222.0308308093952	-220.6255022634871	-220.6122617719752	-219.483104118371	-218.4698129936446	-218.0340506760562	-217.3217306119956	-216.0185137800958	-214.5876083930897	-214.7452625831334	-213.3473628230147	-213.5514543352423	-213.2294923599015	-211.8209355826587	-211.1583462889112	-210.6552209512587	-209.7691648284761	-209.7825980059721	-208.9684908296766	-207.5521836292707	-207.5579953349931	-206.8836521962116	-205.408119253073	-204.5666269518279	-203.8650291216862	-202.8545793741264	-202.939445692552	-201.7058522355304	-201.6257007949174	-199.9128780266795	-199.505468710561	-198.9548729574098	-198.2231775765415	-196.4380827422431	-195.9492962062123	-194.8756172940487	-193.7099026626488	-192.6265360920814	-187.9333888119708	-189.5202690565588	-184.7353454421905	-189.1688557696384	-188.0993107129351	-187.9682012405098	-187.5084776796906	-187.1887123245693	-187.5303075194966	-185.9788859425946	-184.7369595578578	-192.4792795341831	-194.9230877095475	-193.5938419655868	-185.9723627809306	-186.5232816536554	-183.3039879842214	-183.3502963550157	-182.3078133036884	-179.1775198081404	-176.6564030515293	-176.0286914031155	-181.2038441548142	-182.5826265009039	-193.3422148210659	-209.1355747753454	-215.109851144771	-189.0654530595361	-180.751224778011	-177.0458569983234	-177.3352668999393	-170.9860680713253	-171.5156743920016	-169.6471998857554	-168.9213814274042	-168.4654033856771	-167.0582665559176	-167.8897480791853	-172.8041670503114	-173.3650967010134	-172.505004273497	-172.9590435977834	-173.8889535683621	-194.102263203404	-256.3721480459776	-290.229524057931	-200.1614058912552	-159.4845171717389	-158.2402652153933	-157.1637449260632	-156.3914254109335	-155.7172112235414	-153.7611564908927	-154.4196771459746	-152.9296112330302	-152.1518016495517	-150.3394521238932	-149.9820966976611	-149.8573162187158	-149.0101411631378	-148.4041304031406	-148.1397785726654	-147.2351223236113	-148.0046656783692	-150.6263422857161	-151.3565525023064	-161.5855014084771	-163.9700838411088	-149.3846752859581	-143.2391825976033	-143.9219209164949	-149.5060970999795	-148.082362595984
-257.1744376426444	-257.0842754240541	-256.3626545557578	-256.0204131216838	-254.7574973044719	-254.2212388707424	-253.5458626386458	-252.6475991176663	-250.9532475243105	-250.6763029236702	-249.025870394905	-248.096864566252	-247.8846342944934	-246.7546362335583	-246.3921153407507	-246.1636742489243	-245.0279934336562	-244.2514096294769	-243.6049036866077	-242.3126655092057	-242.3786070995865	-249.6400836490281	-247.9240963840504	-247.9107269411491	-247.0635518855711	-246.0456748344217	-245.3175322866614	-244.6103791713763	-244.0783835444965	-242.3127292438004	-241.2097931882412	-240.3407230760626	-239.6235591828002	-238.6630995905321	-237.904084301509	-234.3568879996226	-235.2387465323502	-236.4574216475978	-235.6419567762138	-234.3497838156064	-234.0510731097549	-232.6511708976008	-230.6552020044323	-230.365663151427	-229.4629441376137	-229.1886467459558	-228.1300166091556	-227.5375679780439	-226.6719854821786	-227.0995453056412	-226.0696565066789	-224.848721036617	-224.6145957082578	-223.9292739149785	-223.514953100828	-223.5340705148569	-221.7359308394305	-221.5925487520138	-220.1750142901088	-220.3428082095193	-220.322076679823	-219.0740154697904	-217.3449818814848	-217.4397300264983	-216.6349221722386	-216.0807098513845	-215.0843395204676	-215.4477660374007	-212.9302006316978	-212.0221205009251	-211.4936124903586	-210.4498369607375	-208.7118909045643	-207.9212929005368	-208.1085273535496	-206.8884322908187	-206.6194960161203	-206.6150390410866	-206.1211492908751	-204.891237618351	-203.7075038830318	-203.3398797760438	-203.1890066504427	-201.2092500595419	-201.7823871084407	-201.6475306347234	-200.1741928296044	-199.4189245418733	-200.0062047420098	-198.2931892877878	-197.4642912389079	-196.4157356146796	-196.0487577468384	-194.5344726878845	-193.8853832706275	-194.2440934275482	-194.4683369293196	-192.7701108654822	-191.9063366534683	-191.0240260497779	-194.4632351973388	-198.3863870517287	-195.145844564841	-193.8425625161466	-195.3895286002147	-190.4351954685688	-185.3598925938643	-185.0509132072567	-188.3542313055854	-188.9409957001642	-183.8761571565998	-190.585616523207	-196.0370676363991	-206.9955153032185	-218.0266233724666	-198.4317897983975	-192.4161793209688	-179.42100967533	-176.9471691660337	-176.0979264416256	-175.6794732542147	-175.0028060260242	-173.6125899900741	-173.4217389693585	-172.512366360292	-170.5663238878205	-171.0672526052535	-181.3958572202343	-197.3652802870447	-192.201042455249	-185.7273225326684	-214.2168850061562	-259.1266801572063	-295.6799420778081	-247.0678146924207	-163.8000933014788	-163.4281426530463	-162.3222347867313	-160.6503592723284	-159.7413112650352	-159.4017822567382	-158.7255656173106	-158.3747333527425	-157.8752897995875	-157.5608855614256	-157.1450795829971	-156.0046186731218	-151.7443923334332	-152.2393803937544	-153.0920455176812	-152.7207396261956	-152.0552452206869	-158.5119153980687	-160.802976947186	-162.5007509400606	-169.9686445733386	-182.8716495483516	-161.2017954328106	-147.8873125030134	-147.0098457285249	-146.0061785276077
-262.5340472047841	-261.4536509627725	-260.6283709637952	-259.8794301873442	-259.1771223834609	-259.8033488675968	-258.6335655975312	-258.5111744247894	-257.6499836871633	-257.0528853950337	-255.9451055102726	-255.0755181103366	-253.9442942701021	-253.6717399455009	-252.3723975840827	-251.0603957535049	-249.7511715654988	-248.9965480347148	-248.6780099410927	-248.4353604812339	-248.187930926768	-254.2218851098893	-254.6559028782211	-254.4304335971505	-252.4323333005571	-252.3258313105096	-251.1683191732356	-250.1933933101563	-249.4601475482155	-247.1304628346723	-247.0552204400558	-245.4254557063921	-243.2636301290541	-242.8434976091811	-244.4896035965018	-238.5528520813924	-239.9457153263249	-240.890866758251	-240.5862791298825	-240.4860423987201	-239.4584776891668	-239.205558066352	-238.7902056410863	-237.7041266447418	-235.9345963913643	-235.5091042367318	-234.1859933180669	-232.7051644747635	-232.8415698473535	-232.5872940116503	-231.5838847135118	-231.1625264143397	-230.2827992850369	-228.8786980006279	-228.8547367573971	-228.0696925563131	-227.6918635031637	-226.9582961038492	-226.3863863164496	-225.1642235848886	-224.1780596823329	-223.9930841019345	-223.96989804924	-223.5212835765077	-221.3697266799256	-220.8683458915299	-220.9118128851576	-220.2438624744508	-219.3569674265371	-218.4793064838645	-217.3814084256913	-216.3595916872656	-215.4387246181437	-214.447779138781	-213.8155467807388	-213.21722122711	-213.0804927349465	-212.1695712270073	-211.2430184391527	-209.9279825454242	-209.4072249580208	-208.9897396471303	-209.1870500949151	-207.8799573103338	-206.9734927774284	-207.2444300219624	-204.6443890862373	-205.9654975528668	-206.9082596785893	-202.0692135356689	-204.3534940203435	-203.3435615605412	-201.5096400978554	-200.8172763729548	-192.1103644311011	-199.6466541777582	-202.387557461107	-198.5639975809324	-198.2848578422726	-196.5911524880636	-198.1345005222291	-202.9404787858671	-201.1575805717882	-196.5795261122191	-198.6534498257811	-197.7742399842358	-190.7032913359363	-187.868480314905	-190.1171094459095	-191.6153763707799	-193.9981505195602	-189.5037988515122	-193.6475776399707	-199.4980414069714	-208.5039234396554	-217.375595237769	-198.4204228075317	-187.6340333491723	-182.6837036393972	-181.6527817471198	-181.3751909073327	-180.2577218819678	-179.9473862824716	-177.7169066889756	-177.5080988167357	-174.9698670981311	-175.2931200695658	-176.2501557801152	-188.7564736729285	-202.9377026254952	-208.8379623796036	-225.8585882796247	-254.5856984809905	-293.2115916368606	-245.9641686631199	-168.1973712529044	-168.3095574794847	-167.9186821030074	-166.7183506934524	-165.9679247527234	-164.7907141790682	-163.3598102742619	-162.9237248371	-162.5280056314207	-161.9398850239533	-162.204365805818	-160.9810410295525	-159.5987043681548	-159.320209386442	-157.8233624090549	-156.9194161337425	-155.7093955835837	-156.0514443316737	-164.10306681418	-162.6724208121525	-163.4154831838866	-175.6359425259921	-183.2337183701963	-160.8341075912276	-150.6749762281193	-149.5405226743503
