-105.5706373990845	-113.2412500909554	-113.975154866364	-114.9474263972531	-46.33592976610328	189.2998976014834	306.3512808746362	303.1403297718466	300.27516763637	297.7339483242017	294.7308598547208	291.7712953313936	288.6647342640771	284.6885375131588	232.8704110106879	44.92605969679113	-146.8296064151559	-155.5518743237138	-158.388908391598	-161.3884220633991	-164.5837885515743	-167.2080479757533	-169.523466711183	-172.4689012869067	-175.940062637295	-179.2639341924575	-181.9938772520993	-185.1798244041358	-188.4556352236567	-191.6345199176127	-194.6436906143857	-198.6079028339416	-201.928759638639	-205.0097024955225	-207.8024013131638	-210.8009815115551	-214.4656705994742	-218.4453784095743	-221.3948499570103	-223.9511510536271	-227.1733075835926	-230.3365549326689	-233.2142439886824	-236.1878351944841	-239.9028666164229	-243.5212920679704	-246.4179937504999	-249.5873113810949	-253.7918353148849	-257.8604631239127	-246.1694993095552	-123.8120300539959	126.2876031420638	158.8755150102719	154.9344158590158	151.3195776916774	147.4841562029973	143.9940834682663	140.5759039853575	137.3155675608073	133.6992725712406	129.6010186872125	125.9449338175767	122.3354884782383
-112.1285070408001	-117.2271640371795	-120.7319604808143	-122.9597492040649	-59.29243463453696	195.1731082842555	300.3487602638307	297.1015629282782	293.7002307741231	290.5516217391292	287.845481122903	284.5404923654214	281.8170972360741	278.6266852692372	224.758586886294	35.88221739665002	-154.4757421581043	-163.20633165372	-166.3388249978647	-169.2768738398588	-171.7877579768274	-174.2590119067225	-177.3532397452903	-180.2792165179548	-182.6528553236808	-185.6194475617467	-188.5298326693014	-191.5758843849763	-194.8385767703172	-198.1331565749069	-200.8633051437521	-203.4180021196857	-206.5136821536302	-210.3429511909569	-213.853828243519	-216.7297257927343	-219.8910173351651	-222.9265850905977	-225.5902312126649	-229.1327619455738	-232.8752778681172	-236.1491022916479	-239.5700196021599	-242.1511455479568	-244.9657277210375	-248.3052096012507	-252.5527235529102	-256.8905132236204	-260.4063586983486	-262.857115462477	-250.3527297651095	-132.6715038169917	120.3128084980593	153.778189588214	150.0748244050787	146.8718401543519	143.3477512687443	140.0896082074113	136.6639653311741	132.9973648140695	129.2786300273797	125.7196295860932	122.8982613651175	120.0201966633314
-121.0544103597921	-125.6515774019265	-128.6349675715529	-130.1735234929873	-63.1128447350726	193.6099428256746	293.3218898287231	289.8839980687003	286.7133890772423	284.0692595936478	281.8947746635876	279.0365886136454	275.8079969964741	271.7225344010519	217.1227786574956	27.41294394420524	-161.1779240929129	-168.9970649343744	-171.7495212644929	-174.9030884145171	-177.3328493046943	-179.9010751963618	-183.1551484333351	-186.4671572702167	-189.6938248557814	-192.3114514358674	-194.7216953910662	-197.5168082199055	-201.1405991031125	-204.618783970155	-207.8586749338506	-210.7237687964171	-213.588281007701	-216.2915010815098	-219.6770556869128	-223.0105829654613	-226.0154184522916	-228.2875959816024	-231.3589068751089	-235.0623620479345	-238.5613930668295	-242.0699643774101	-244.8701947016729	-247.0240340657265	-249.7150264833056	-253.3061034165843	-256.9919560277436	-261.0037600673855	-264.9569246865161	-267.589633860233	-254.5599348099782	-135.6745761265596	117.1323296859292	149.5482771725861	145.5749287646967	142.1506100536177	139.3210795139885	136.2024672678469	132.8924028567696	129.2653661840718	125.8121595776188	122.0777239596081	117.9282226098385	114.3537531893422
-127.0300719019239	-131.4301913625937	-134.1050636267162	-136.1166493342182	-70.02981791481307	185.9202301512971	285.3586173812853	282.2153879223051	279.7599176221342	277.3272160232226	274.903156278531	272.4018671381168	269.644315160893	265.9349158016237	209.7894548091539	19.50740149394753	-167.8940980008563	-174.1256283901318	-176.0015359444279	-179.2400292178145	-183.0949169146145	-186.6059988275386	-157.7448550377271	-148.8378338901274	-153.7414525594197	-196.1544833576055	-200.6789718265944	-203.4583753358665	-206.3263085327326	-209.0165179242739	-211.9116067294475	-214.9059830289312	-218.2809535376067	-221.4197437599614	-224.0338672049036	-226.8118842724462	-230.5221836836423	-233.9861171309548	-236.8228096404843	-229.4260170832855	-200.2041671501702	-203.4241013022132	-233.4623858099561	-252.4721717735062	-255.8612082228609	-258.9691018525899	-261.1605699373016	-264.4602871352056	-268.078836755577	-271.9057311728959	-258.3699162225763	-137.3855910933953	114.9072324429997	146.7130570302556	143.641001242955	140.0648158154148	136.6296756750138	133.2127746330442	129.1846594562355	125.4889549106393	122.1968303056065	119.2349701063627	116.761922269478	113.6279473138396
-134.6270229651007	-139.2435989663235	-142.3869388052884	-143.4647643038699	-71.01726679233502	183.4293024171915	280.2775818980967	276.2035259520713	272.7229212332056	269.7329416071501	267.3232557199356	265.6052375526093	263.5511445316325	260.271750108683	204.7925730173153	14.05400162268447	-174.7341008217081	-182.4827136980493	-184.7734998905919	-186.9247526398713	-188.9992312531296	-159.9156874818674	-140.0819937321091	-59.23780269234871	-72.5718398085591	-145.7615925140125	-197.7426458408961	-209.3942760079779	-212.5868633721052	-215.5934295759896	-218.2303641453205	-220.7650485271241	-223.0811789435583	-226.0794230438051	-228.9470950812519	-232.2741580378151	-235.0721031707315	-238.2531844856308	-220.4234653030967	-201.509124979968	-204.8262333018972	-183.3753467457645	-130.4143293664482	-170.9281192071108	-256.3062430174292	-263.1531449522229	-265.8505728576961	-268.5653300152145	-271.845354593548	-275.7280113694262	-260.7421859926121	-137.1108272975098	113.6391664577353	142.4091190935417	138.8982338001629	135.7892580080851	132.6474921370323	128.8549210901942	125.7291464492881	122.7472940454847	119.2473748759871	115.7407434521715	112.2417682196573	109.0957676594653
-141.0829172803359	-145.5672741583663	-147.7587338948998	-148.394015046192	-75.54974500180617	177.2090189742848	273.0885839748585	270.450331569495	267.7331333809498	264.5676222351779	261.8623169941161	259.5522632125023	257.2023611160938	253.6300983022709	198.6220883200403	9.042657483407936	-180.5068367333542	-187.7128123046318	-189.5643609378133	-192.1879601790164	-174.5740137060388	-137.9797768147576	-0.7767804093149095	142.3752600237574	195.0290411034339	146.8187505511916	-20.65529408605795	-181.009383471505	-218.4856695510917	-221.0202104521095	-223.6122245066738	-226.0488752232757	-228.7829687359028	-231.9677882271583	-234.8185133081396	-237.6298616382267	-240.5999840725351	-218.8496487432749	-199.3753092546398	-185.0512150020199	-22.2645480583319	114.0026363486948	131.3715564098778	51.84278208857954	-130.9470982584459	-262.4388257582951	-270.9701365776732	-273.8358533453273	-276.6395616521471	-280.1491744330242	-264.9235029532628	-137.9550888431461	110.3067339774386	138.3051699335076	135.2131167537669	132.6042183794502	129.0366381994497	124.5874906268281	120.837163870707	117.9687763150371	115.2676408225526	112.2840505392111	108.4284441592634	104.5591325059725
-149.4575845609684	-153.9213215912351	-155.8648320380873	-156.5663309858792	-84.36190491285188	170.3311753355325	266.0246881616546	263.3588678038149	261.0949258210786	259.4539960598728	257.1970038880262	254.2261137381792	250.6215985913347	246.5878271310975	192.899666710858	6.010576356188011	-184.8540343100377	-193.2792116944615	-196.1777305149433	-193.9483455225131	-147.38730422359	-12.91590699653278	153.6496389319127	220.9875878809516	219.2895228195972	214.776565168105	197.4765171298043	37.02933469966602	-147.1974926854974	-225.7060855636029	-228.6354206655874	-231.8221006102925	-234.6485712650698	-237.131651151937	-239.3126906830958	-241.5022062864277	-218.568679370676	-197.7985174090055	-157.4253483942073	44.57596851289375	162.7639787404201	170.8534711889274	167.4478416676502	155.7601571243344	46.73384596777365	-140.9595205320878	-270.63524477159	-277.5180779718537	-281.0024100152805	-284.511906219309	-269.4520222772646	-137.2257210173902	111.0880775893813	134.6653197820484	131.6231139494694	128.2996124063381	124.1773124761835	120.4008682123365	116.4119956908775	113.4357168069326	111.2506620442941	108.3549197485913	104.6123172526152	100.7886242302335
-156.934038721702	-161.5150760850706	-163.7911852905311	-164.7512100580188	-91.14106465525722	161.6975103037913	258.2860697602154	255.4611036023128	252.6473034850229	250.4361901823338	248.2465901576071	245.8940347428027	243.1764941657237	239.1780430116421	185.8064592176441	-2.757720577706522	-192.6026686588713	-200.8394930463159	-203.0254640608976	-176.442893794188	-86.24669343280524	119.9346228010886	217.2704774795854	215.4302771972397	212.6187786238472	210.0425043178539	207.5469127089603	189.8222234107459	35.27339177326147	-151.2139148189438	-235.1713900458639	-237.3933792345904	-239.7912930623288	-242.2166906934782	-245.4487853548015	-237.0778556017474	-201.0379975308341	-152.6834634536278	65.315171858319	168.0292246840447	168.1128979270092	164.7882857874019	161.7167776923244	158.346350530143	143.0080982130245	3.361843988042317	-172.0671395465347	-283.9067921712416	-287.2218115573245	-289.6997238426717	-272.9793600558297	-135.4791327613158	106.3777328017539	129.1708255251217	126.3634426201029	123.7779026819831	120.4225532220577	117.1474403170688	113.5725368114475	110.543372518907	107.3928300250719	104.2383232754931	101.2750846737259	98.15782093614712
-163.524421943939	-167.5315120120172	-170.1018413746399	-171.8201897607493	-99.72445740307288	155.829791798256	252.0802520523238	249.5457016928126	247.8056659383375	245.7981619159738	242.4777555144366	239.0239873255896	236.5860884359875	233.7042624185984	179.9061988079074	-11.48047692662831	-199.5037084958461	-207.4324596377504	-209.9560851947249	-177.0579062299825	0.03344130449343652	201.6981871772236	213.3100420248971	209.6004136648419	206.2210986231715	204.0776735950643	202.2348422955843	198.7679237169045	182.200207147197	29.01007712384128	-160.1324718621639	-242.3084953900976	-244.4353479854539	-247.5251437111437	-248.6160766605726	-203.2916500351503	-164.323900789997	64.07576420590645	167.7631735813682	167.1699324050904	164.038731381716	160.2003378525902	156.3875440264909	153.8118482068555	150.3798046255264	90.44812097574734	-78.19146866973333	-273.9095910731318	-292.2654447124797	-295.6033491526932	-278.4725439857236	-136.6629485315013	106.0079732961263	125.2450812375882	121.479520811172	118.796737668702	116.2519005334258	113.7224107246188	109.9937003028959	105.9220005650907	102.7662342819431	99.59846429091246	96.41986597650215	93.7146473593191
-169.6172840325478	-173.7793712232298	-175.8875141257774	-176.3232502574354	-108.7177199250896	142.3703270313362	245.2122808111641	242.6855885584654	240.1984953866428	237.8197724056445	235.8362045411023	233.6206745067535	231.1180163053317	227.5932025706423	172.1329520692105	-19.16741716555978	-205.1691138928518	-212.1003880174719	-214.6505810420049	-188.2893072153923	34.04033342999571	204.7877218244159	207.2637363193437	204.5126624077715	201.3316651928613	198.4366235005813	196.3742200764042	194.3690435362547	191.2057611256103	163.3333892001238	3.227110113535588	-180.6854312734902	-214.5707275256349	-213.236183811465	-211.3315690910138	-196.7674460448085	15.65241933926513	161.7589473843921	165.3674526879367	162.9658441401313	159.785826346827	156.5865405840366	153.4005211390864	150.6256764268756	147.7896560258227	114.9022397491661	-52.93270263658334	-267.7531241114698	-294.2243042188306	-296.6163196085204	-279.9688751607692	-137.8376176525234	100.7929364730055	121.6465814794764	118.4227527339982	115.308515512044	112.4041554573722	109.7069379112075	106.7653610754551	103.0475375238261	99.40203854418365	95.81606830497955	93.33372841980803	90.58930806330488
-175.4979662504785	-179.9263652568164	-182.2464336148895	-182.7785384529696	-107.0438745124291	143.4337308716219	240.5690723122854	237.6528826120545	235.3142682960879	232.879814082728	230.1646377701686	228.0381133215634	225.6667063668134	222.1309312470832	164.5657681622942	-27.23016918989126	-210.8510221095862	-217.2144526380142	-219.5788983729538	-199.2247884836059	3.530564325482771	194.1806638891285	201.8959550321435	199.6359319410743	197.2117113764294	194.8347365618321	191.8640138557603	189.1152778899757	186.3782015373633	181.1471881562366	100.6441175214034	-83.24505453708468	-210.8448279109841	-214.1690301346936	-205.6046606552922	-86.82430038766505	135.8858631207957	163.9159462186687	161.6633598651443	158.9801817361368	155.7878848820999	152.4296119146335	149.5878076770535	146.739734362919	143.3897428507632	108.8313843286853	-70.163868524436	-281.5904337205761	-299.2032512194713	-302.0778328692448	-285.6133087076028	-137.2109588924658	100.5576021083611	118.6606349053394	114.865636955459	111.1666105944218	108.0370697707139	105.3326585915986	102.8027785592706	100.4279446741311	97.68890229945308	94.49925993313641	90.53360948512372	86.83404715257373
-183.2792081617034	-187.3771245425426	-189.5630024515854	-190.3092427052093	-117.7495625856859	136.0802611181334	232.7272675767872	230.8167707277652	229.7871177334846	227.4920816881254	224.1443582742078	220.7086936060479	218.2598945499163	215.5527190399489	157.6237242807184	-35.07563961156407	-218.1612929051842	-224.3510545908262	-226.2313654498946	-205.6225963520165	-59.9701060170764	178.2657014459674	196.5631329049855	193.7418891350964	191.1303935811003	189.5797446816527	187.4314526694506	184.5446774298686	180.2391677754104	176.4595017650682	170.8113322334126	137.1731259313479	47.61462258062184	20.35353063533766	77.93658996317269	143.2312676079865	160.6191677743768	157.5413062048025	154.0927055730264	151.2459958145165	148.5173320476358	146.1239084315351	143.7464531836524	140.8757387494368	137.0244593105359	87.79669841366818	-113.9923152913716	-298.0465192781525	-303.4231103095796	-305.868275456385	-289.7227968176651	-147.0703988661308	92.47567796407569	114.2246625594828	110.3880142760834	107.1226953866619	104.6013036204336	102.2662339010236	100.0214307831259	96.91058483413111	93.48335505686754	89.82649905680542	85.98915768870631	83.10695840864256
-189.5308435201183	-193.2780600691203	-195.4886615890729	-196.7849022684387	-122.6602893548656	132.0732755637412	227.5291930943387	224.9554275870833	223.0071391997557	220.9615805921523	218.7157818565353	216.5941802420421	214.7450105584903	211.351331424999	151.9951584945142	-41.70247939027038	-222.8721882790873	-228.552783697315	-231.1072025423259	-210.972576362624	-63.45518858668549	178.1552925242812	190.9147192912785	187.7746048980529	185.8237846008197	183.7265517463495	180.8448578242777	178.4334280152893	176.0854695984151	173.731371056376	171.0880173904386	168.6620882535635	166.2302264995062	163.7683374870471	161.1993082853233	157.6585183461905	154.458245189404	152.4243468718936	150.7903882120459	148.6613442956155	145.8018714259431	142.5335817791983	139.9969970354514	137.4091036074514	133.563503441542	69.71390692837551	-128.9879502611129	-302.8910628538665	-307.4378314606312	-309.8395390239499	-292.179396400049	-148.8798171394426	89.43241967162081	109.9810026771368	106.9671215469797	104.5828632498095	102.3135694507218	99.14212643150435	95.62534036279818	91.82184114298489	89.03365391526211	87.1906617321924	84.94751178373862	82.030403215202
-196.4809626130156	-200.1421928174258	-202.3840173947543	-203.7009441725618	-128.2534165076493	126.3925365414158	220.3452138496099	218.4506703661933	216.0771575854695	214.1165047987467	211.9675954700254	209.3204853005774	206.3337074249742	202.5267222673072	143.5161311324803	-49.68711949987556	-229.8893911163396	-235.341869079256	-237.8122551191147	-218.8584506689128	-69.0874111035244	168.340159143058	184.2336407119526	182.8571687572466	180.4156286183998	177.6878036842107	175.2462692498242	172.5297651339655	169.7168030433642	167.2999016933446	164.9916076861298	162.5566262376569	160.0073366813082	157.7369948065657	155.2570364073802	152.6670934773637	150.1193568178091	147.6266682084609	145.6825172055636	142.9629154281243	140.4757573111128	137.6301609086887	134.7875473213499	132.2572724144731	128.6919497997883	65.40992712243602	-129.4012137095387	-307.0007080210601	-312.364080345657	-314.5375918970709	-297.0217982718489	-153.0504198443937	85.63177798592409	106.1187987847576	103.0654921030986	100.2070760657537	97.57674898559446	94.6036549193347	91.57416822323982	88.87141681502375	86.15020968285474	83.73795440442609	81.48317756318613	78.42763100908482
-203.224972925936	-207.3092027417252	-209.9585320129062	-211.569057906127	-135.9139145746185	119.8982179996666	213.7371878272636	211.5192455998827	209.0372856659294	207.4259009059615	206.0407316025333	204.0020076425455	202.0323340750135	199.008224143067	138.4280865742858	-56.79762482660313	-235.793952459515	-240.6659836806752	-242.992755444678	-224.9842393057329	-79.24306309190627	160.549949423339	180.8942143601202	178.4158137288305	175.7326922792955	172.6802769124399	169.5598662551026	167.5263030025772	165.1135610417435	163.1784601027871	161.1977717711075	158.3606111729444	155.7034465925193	153.8201836634243	151.8919529011553	149.2934971802967	146.3266857746405	143.2902116036396	140.6874490145262	138.4660481898022	136.6412965390115	134.6479156370094	131.8182604062639	128.7848700201921	125.1998617919833	62.24498530820395	-135.6637092231512	-309.5145056406876	-314.4037227411931	-317.5230621246192	-300.1981215192544	-155.0742146274573	82.70624192402511	102.5931995140309	99.72807241196536	97.69758603003822	95.05099128927411	91.86587542449686	88.96705005952232	86.30194008247106	84.18298433446644	81.4185489548387	78.0522595326026	74.5600296978468
-208.9432772142351	-213.3008755993002	-215.1578569053392	-215.4603908355945	-140.0303156259312	114.3627123198361	208.0769456175424	206.2207470932911	204.5535267180396	202.6684250718244	200.4604860990708	198.7998767398673	196.5982828404531	193.1645234714304	131.8519681734985	-63.31857330046603	-241.0869922298309	-245.5830239494331	-247.3584801280855	-228.1262840018459	-87.47440759311525	153.1694064038682	174.5713182619888	173.0580530466412	171.0012598360918	168.4193282842295	165.5984415435352	163.0336484445252	161.2066609832116	159.5703058059621	157.3643729706517	155.0135720303771	152.786714755047	149.9538873680468	147.5463333990275	145.3420118952366	143.0758625346573	140.6821660568903	137.8805895523739	135.1130672189893	132.8841487884718	130.5879657920127	128.9222341782725	126.6534731374206	122.2992071020888	51.88690821022914	-150.2023301123048	-316.038867858806	-319.3472911443651	-320.8624268479686	-302.920771552028	-157.3575470620765	79.73297309096404	98.94107076221781	96.60701091296662	94.09000227948087	91.75717094958947	88.95220326382935	85.65240525986559	82.65299495874584	79.85462346703483	77.05762956794104	74.91999439579064	72.16132403240812
-214.6376054435893	-219.0953061965697	-220.8903794950381	-220.8427709006103	-143.5800790810958	111.8857423865661	202.9505073122676	200.2812653142916	198.2446046202596	196.5873491867779	194.2832475333853	192.3421669030896	190.7984039188721	187.4552716622597	125.9095243049503	-69.4233259836173	-246.8258999627896	-250.6472392613807	-252.0523994436063	-232.931193925587	-87.71695117773983	150.6550100636059	169.9016753127059	168.4161326469383	166.555273885745	163.5131365411613	160.6093587375373	158.1690921443518	156.5224167456782	154.6827017459994	152.3226299818145	149.4393437717586	146.2339494775043	143.7692881657059	142.341553766822	140.9700428026478	138.3865806108039	135.2268056446526	132.3107583266018	129.7518980929273	127.8327870818077	125.5516449327707	123.3327039305523	121.4669451086393	117.9368587630335	46.9944253703993	-150.5633252830804	-318.7657539564912	-322.5441077481723	-325.0800394714272	-306.514548996696	-159.1280531671252	77.66230320724144	96.66599314075189	93.53687927769769	90.90018841590582	88.8902582591362	86.61283167268027	83.92726863889605	81.16641492682963	78.78625598920756	75.95395408987368	73.06214397656072	70.35112582232031
-220.9697065004152	-225.1513095058275	-227.5738281736734	-227.2445443135358	-148.6636881932916	107.9014996756811	197.3792504418639	194.0995846579116	191.6942143696389	190.3351799991073	188.6566610381616	186.835768514647	185.1621509643594	182.2361818643222	120.6023468513101	-75.8446069036406	-251.9040489251351	-255.674476657052	-257.1467795285014	-237.2912512061716	-90.89770108878326	146.0899931499818	164.6853095922688	162.5968919845045	161.0035949817809	159.2462161170721	156.6201249792857	153.7356099572674	151.2069954701311	148.9377488042099	147.2141627947761	145.7721776047303	144.0974520899417	141.2993782918019	138.427986623418	136.1384746477446	134.4108845434222	132.8248777647947	130.5899585796261	127.6406641480962	125.3015890709481	122.8604118019213	120.4341060732027	118.4604870492121	115.1902565049092	45.53469520917626	-155.2084976676611	-321.9824982270038	-325.1827738323341	-327.2822945513955	-309.0721160662061	-160.8628071351969	75.28015790603152	93.98616378126437	91.41194205186653	88.3957007859249	85.31032145339546	82.62818708425723	80.83711485582074	79.14884863986583	76.61572615787281	73.3703094381475	70.02336413789646	66.63879530486767
-227.417466584421	-231.6716949364065	-233.9824325351804	-233.5687186403232	-153.3801786349426	101.4984920322888	190.6581058640748	189.0967390599685	187.6559631846823	185.8357388407101	183.2787446924172	180.6547423987614	178.5100322976471	175.6310647210055	113.6284726833567	-82.49886741780213	-257.6791238298911	-262.3645170279565	-264.0833769550854	-243.4133150998367	-93.41136916453323	144.7159806326316	159.909917597907	157.3227392141898	154.9959276544056	152.9417229251487	151.2498870510422	149.5180101761567	147.079800471449	144.9552323008963	142.5416298542272	140.119600247981	138.5347222084669	136.4581457390917	134.1341270043822	131.7715465043719	129.3482334932833	127.1564600006967	125.2496563678214	123.2131608745347	120.4512759075919	117.6539773678899	114.9405867922226	112.6982740573718	109.2400037085806	37.5764894167223	-162.3732897932607	-327.7499647207792	-330.2069220507383	-331.8278394638737	-313.6074357986664	-164.4779836290177	71.23546605016725	89.56742196499829	87.19970277008805	85.2569857505809	83.32586609185108	80.86593668270996	77.85656826525299	74.62141845148143	72.46053068335584	70.29555119029695	67.78836201829182	64.61530110873923
-233.0702220904461	-237.1933592733467	-239.3153629497727	-238.8784546259634	-157.8949935564522	99.12256661026042	185.9265389272946	183.6800039617547	181.7747165031009	180.0482185514844	177.7417823646585	175.6286953342732	173.9925793714202	170.9589955975435	108.2806755294851	-88.52760698125459	-263.156817568371	-267.651585557044	-269.3659089872874	-248.5200335460292	-98.27032804262868	140.0502378493156	155.7657233797876	152.3274060210765	150.3656760785477	149.4263489723268	148.7226759714699	146.7417964111061	143.5715335984178	139.9574236967359	137.0969033792534	135.3248030806534	134.0999227128125	132.3644458666635	129.7398972499101	126.7693563801212	124.1679846985239	122.5228222888743	121.136516341482	118.8426422512053	116.4159933247706	114.1824534383963	112.0345379035157	109.8206636207861	106.1129296223544	33.73543172123053	-166.0406163935716	-330.446403487421	-333.5377206491891	-335.4293030990227	-316.4235607918972	-165.3970622658923	68.69895554787369	86.08280993607933	83.37301924313921	81.37957786245893	79.12259604356717	76.98579161972944	74.90071215397138	71.68522913344182	68.77205622899831	66.448471938832	64.87116554086603	62.84352891163917
-239.3303949704376	-243.1116543751758	-245.5922590426734	-245.6123460666493	-162.3553020659261	92.08967884746299	180.4758441761286	178.2882468896033	175.9058743460154	173.7737792917897	171.5898686409526	169.4564912594931	167.8837803260876	164.6960724453353	100.650364666909	-95.61478696620772	-267.9054631412499	-271.8998987737827	-274.3049871521998	-254.3256507426699	-104.0037685509428	132.6095234121659	150.5113392136205	148.199976442553	145.8459373193229	143.1427888767136	141.0026902595624	139.510872407465	138.466626188316	136.3919255987815	133.4286008630059	131.1146374159952	129.763699878172	128.3562896717203	126.0345406333407	123.6693015150655	121.1613716434473	118.7710267992961	116.8289857948331	114.8024985634404	113.4547142496013	111.0783668524215	108.2140369004751	105.4180755290404	101.3037424608819	29.84762691749575	-168.5847022884769	-333.3383147802831	-336.8240087915826	-339.2485374753597	-320.7205946735098	-168.9413851715054	65.30371475346706	82.93718887061681	80.83660997246912	78.70112441392047	76.30384593081668	73.9724711298273	71.36069142041244	68.7478733178133	66.19657010348908	64.04816501778458	61.78754913703219	59.21328260458634
-245.8337197823313	-249.4846824771192	-251.4423260429362	-250.5765516292552	-170.1396350123117	87.14797352732448	173.4772688172848	171.6509394477283	169.9793835005826	168.3687895811575	166.275187369757	163.7952711398348	161.990386418368	160.05361618067	96.91409524683034	-99.72194333214813	-273.6274441830236	-277.0287988020383	-278.5600078466138	-258.1968681531671	-106.7075984433193	129.4416903309801	146.1881604544409	143.4236664306705	140.8298261188059	138.9663537656491	137.1965007501288	135.2654250361885	133.0471915111777	130.9229271229747	129.1069653849654	127.2733082915407	125.4172039098911	123.3302045423472	121.6690166313401	119.6955283527284	117.5753592387017	115.6114605689629	113.5277548298003	111.6338053945738	109.7828092585476	107.5247898073016	104.8068577025823	101.9890318838028	98.4367736899103	25.92648891441554	-175.2411947355035	-337.41358630038	-339.8359906554037	-341.1477894237683	-321.3493291184731	-168.8999894066826	64.35552962807317	80.59517062462834	78.02787018309472	75.63591165168161	73.8334943041496	71.37151642615159	69.20607994231388	66.69081823655563	64.2317799655072	62.10278525246576	59.37548043672484	56.61497052604298
-252.2462865375684	-255.6482964933574	-257.9409399815852	-256.7945070913109	-169.955317549457	84.54360106581588	169.45474626398	167.0841525822101	165.4511288683561	163.3635135985915	161.0484672440479	159.8234920790511	158.0620012064763	154.8700309671908	89.81333881536511	-106.8314022760399	-278.5187870795449	-280.8611593151301	-282.192510527272	-261.8279499210839	-110.2319534437487	124.5203228912174	141.2163562002814	139.1795714049651	137.4036974009371	135.2076722373682	133.5519525421266	131.5003986585456	129.1036944114599	126.9395123813957	125.9129253155727	124.8817233082594	122.8769152246888	120.8940517392451	118.3256072836558	116.0296273674052	114.1465222671545	112.3171934896148	110.4124169206058	108.0027799868174	105.7685486977443	104.540221878135	102.8310967265687	99.97708989182088	95.36080731882964	21.50746662616737	-178.5391897534211	-340.0099350925014	-342.3528525493994	-343.7877188905919	-325.0827327937751	-172.4589297800641	60.39908051681786	77.4650948589187	75.04671793320462	73.14080186890611	71.34342941281771	69.21522464404802	66.95526182823681	64.35534524169395	61.69254991864881	59.38242986355075	56.54229206514083	54.01393564003848
-258.1370477963729	-261.4575209716046	-262.6309810461503	-260.4448269598635	-175.8768869182968	78.95046444004332	163.0527296639406	160.4570367341279	158.9315179426973	158.0360043918223	157.0577476616777	155.2794356390132	153.0427361465499	149.6533660105452	84.50076611645966	-111.7679902953861	-283.2850130440335	-286.1135280880085	-288.1180950017663	-267.1264102152579	-114.1755220064113	120.0790266459169	136.0922262583555	134.0737727941909	132.2053437840275	130.8287478595749	129.5545118054407	127.9031795338272	126.0338859524565	124.1494745612585	122.2547106328418	120.6147686186139	118.1141878740447	116.0253880819653	114.273384750538	112.2492738656031	110.3058293735694	108.6032370618725	106.5566549491756	104.9390621295541	102.6728607543666	100.0162604177931	97.57025018664336	95.36587177296636	91.35521110666255	17.12645238311089	-182.3261832682368	-343.4070853588968	-346.0655992596003	-348.0127351464355	-328.5608230997439	-175.7224454910086	58.10426046592272	75.73346281439828	72.9129363829916	70.29092457460115	68.23799959177268	66.29821155457688	64.5279477929798	62.10207949239162	59.95457044005772	57.73701769701071	55.39115450383878	53.02888546914545
-262.7471172211114	-265.9013444105471	-267.5574181755726	-266.1857230638941	-184.4289134528466	74.21238964911585	158.7781486333807	157.542463989059	155.832275915663	153.6812451724264	151.6297936925367	149.9759622275004	148.5129661079114	145.9317249191518	80.62196685503996	-115.5018413010596	-287.1906752477291	-290.8763203186057	-292.5518038035497	-271.1115836178444	-116.0431006751665	116.965655498201	132.1932753184578	130.0397217828542	128.3178151247077	126.4668065217013	124.8375756687993	123.5042992589057	122.4153863608605	120.9167792234148	118.4854776907498	116.2755255524243	114.4992390477899	112.4020213256605	110.1970764631148	108.4397032335173	106.6849141072379	104.276874175374	101.8958613050193	99.91029258009681	98.00435567256051	96.43378786719356	94.50708511502467	92.40224924602535	88.86253335887687	14.91611837318007	-185.2309521532397	-345.8411792251222	-348.4640867550936	-350.1607447192551	-330.6527082089178	-177.3775238486216	55.91412077514008	72.73895644797784	70.48950184409793	67.87127653945458	65.41769907281054	63.95026983345383	61.72995631270078	58.93781070787205	56.46024486972087	54.40621827569328	52.05584867795	49.93344056820277
-268.2074476478589	-272.0983375868963	-274.622522997721	-273.1147135415704	-186.5384544691337	69.37213643890074	152.5716030585077	150.3651229252255	148.6637282267651	147.5754150106512	145.8644598986373	144.2761278114764	142.8502172980979	139.9311614893586	75.28117157568434	-122.406602531828	-292.6138789097957	-296.3726888480013	-297.8749659365215	-275.8365289147201	-121.0975172889075	111.3463482787416	127.1303365037336	125.6181169986825	123.8392236848774	122.3511030433067	120.6739936529976	118.799028994279	117.1515500373958	115.3725353634527	113.613317580013	111.8590391154979	109.8718113360573	108.2498930963254	106.4712817610012	104.3792569259641	102.2158662779224	100.4032596107831	98.68158801730108	96.82067178519279	94.62739805672847	92.61990833652661	91.08220694324727	89.46331868057037	85.65883246563936	10.22322703018453	-191.5982511249718	-350.4121606620199	-352.5480074535604	-353.2438830947095	-332.7576974534995	-179.8726923526796	52.75620831160559	69.4518089779223	66.88601090149825	64.73275562830119	62.94746451479469	61.60267049421793	59.5109209917575	56.96310366230773	54.64501312090908	51.96211083462151	49.82884298269477	48.10196828670033
-275.6533330377155	-278.5374169934354	-279.1817199224933	-276.7215382735517	-191.4018131825929	65.23551759517522	146.5594850463716	145.1856553751193	144.5344402750119	143.613770759179	142.2490792547669	140.8543767961515	138.9224575494158	135.257475241836	68.64738811950355	-129.0506966873033	-296.7416413668084	-299.3044721512429	-301.2837691079027	-279.9508597450618	-122.8463895463877	108.1235418548497	122.8262469653613	121.304846197323	119.7719338117611	118.1756520815374	116.2144163152365	114.5735749857356	112.9917554843145	111.0668503238193	109.9286708080001	108.600390893534	106.3418133010515	104.4709709324348	102.6986910380485	101.4865825369569	99.74426508876905	97.30588200931524	95.42396778786045	94.40717720923895	93.43993720147573	91.54243064189357	88.98390210276546	86.16725204818056	82.08312014748945	6.914425784757782	-193.206854015465	-350.8300773345072	-353.7471180887898	-356.0339312725351	-336.494575430455	-184.3585175518274	50.71710181144124	68.22962087028074	65.6534824505647	62.85850970536319	60.83676865714668	59.1238534756809	56.91502745230025	54.83542024323054	52.31160280619702	49.93990565379244	48.21437713161532	46.39799927903465
-279.9243462947724	-283.0103123196431	-283.9886606343903	-281.8999543646621	-193.5120819715898	59.39275773397797	140.8971469306053	139.5960186464365	138.7075902786819	137.4891744521765	136.0634128314414	134.4668609120726	132.7560497974241	130.6741661256013	63.24857063114674	-135.8162971484777	-301.8030711773757	-304.5281781680159	-306.1063152801853	-284.5641716884813	-120.1440466051597	106.4770979789254	119.8634638250738	118.6297945914475	116.7710689583196	114.7445544813114	112.5189144905978	110.5609055854204	109.034970431265	107.6255101368679	105.7183751827008	103.4342062634494	101.7818701372033	100.5535520056413	98.63536532050412	96.70741453149967	95.28048202085128	94.11118463976047	92.22199674656173	90.20067136315254	88.3068157981981	86.6790024005104	85.58776080965691	83.96934581705762	79.81430643945203	2.368291485732001	-199.294865041119	-355.6986815551154	-356.9364244549469	-357.9069972334044	-338.2240419374673	-181.8186990304372	48.43754542975267	64.5750004650551	62.69612095949552	60.78235257993367	58.53873755060934	56.22092867091285	53.97455356107625	51.94013662715105	50.70186916472741	49.32844348874178	47.067647607612	43.64275480407954
-285.8470045263795	-288.9169751671066	-290.4752198791389	-287.9574943360097	-201.4087271755389	57.54847215429567	137.2359431682981	135.4286623773839	134.1473526997751	132.9932756886404	131.6601762407486	130.0880430474312	128.7449681700199	126.0549625686317	57.5662498014038	-141.7278021691277	-306.6331384864415	-308.7748432287682	-310.0070961765047	-288.1579583807717	-130.2604203847565	99.77823045933138	115.2230038337752	113.847735082244	112.7569114916672	111.307889732058	109.4315963246929	107.1038773403571	104.7148211073924	103.8201060807511	103.2429574535421	101.816900225828	100.1142384501761	98.01892032272359	96.01774623166465	93.76285275878706	92.01689399381502	90.64820908596838	88.74016264677765	86.76901662330293	85.04517331403491	83.50016990660002	81.89007780264457	80.17505546944288	76.90918283522261	-0.4591090382266003	-201.9829896882652	-359.1902835579725	-361.5687028036033	-362.8433790480109	-341.6982711441773	-184.6267391968373	45.92111571484585	61.4811066428633	60.01026883582858	58.20894851528379	55.69687544488005	53.3380698818109	51.30258313590147	50.18787960265115	48.6333813148741	46.72348028703499	44.87678089093237	42.70047199704783
-291.2660705336573	-294.8615022989429	-296.5367761014993	-293.7989280892019	-205.4101214618899	51.79752863418333	131.3291280276538	129.3607004668411	127.349085194908	126.0453188189333	125.4065716912369	124.4880540366627	123.5331386286102	120.5769649849542	50.79869185856251	-146.8392497924122	-313.1069684311053	-314.4999671015035	-314.9848672258001	-292.3821454383395	-131.7471418974348	97.1330802929126	111.3819653760944	109.0071820307631	106.9961504330684	105.4478192824788	104.6903772760233	103.6351767649683	101.7096439363688	99.85721235249227	98.05569644556175	96.57208191523611	95.52546796832749	93.68447407223248	91.77227592291969	89.6029241346704	87.63365810130826	86.03723562963565	85.04893371731731	83.83731530708181	82.19141740806637	80.05884129017724	77.94310803843445	76.18260684942845	72.81149602471504	-5.147767243509023	-206.0975583070689	-361.7430023584729	-363.6181974760012	-364.8141190290227	-343.2246866558461	-185.5070227969479	44.32239894143538	59.5232004450298	57.26878381564896	55.42360616596665	54.23951845268539	52.24147241202687	49.79732189196022	47.63852215697341	45.96960196825802	44.46187757402569	43.33517996701059	41.69183109518488
-295.2101698044347	-298.2084207913392	-299.9649641301586	-297.0565465550206	-210.9059793545088	47.90144116155143	126.9674795741406	125.5061832203094	124.453648577816	123.0621917757061	122.0821809489134	121.143104665087	119.8677934500233	115.8944803738156	45.83023701478351	-155.2553168918033	-316.3314990582859	-317.1935579450592	-318.7625380950064	-296.4174824513123	-135.3007111077416	93.42562560991058	107.1792627308509	105.6629571804268	104.697556309659	103.6647174555638	101.8484017145862	100.2578226795876	98.36869068085498	96.69291457251887	95.27547319208283	93.89383201423509	93.33822145743338	91.75271235520052	89.0760542797703	86.95354541952969	85.88681260805434	85.02326483141135	83.10195908042681	81.0595611927242	79.71523709278321	78.6474936012429	76.72389443836849	74.22194744075384	70.41404217039505	-7.986322816320438	-209.5184247807668	-362.5804690714201	-364.8631214524047	-366.9923003002716	-346.3314355415257	-182.0067669351422	44.30511532177565	58.44507176501006	55.8594377873074	53.0627569622792	51.04555382452278	49.34288154084823	48.18808135587923	46.53407984526567	44.55151823438399	41.95585120161857	39.79434041070408	38.2771870017657
-301.4494496640757	-304.3264468424867	-305.2330320712987	-302.0280623902734	-207.0710080948328	47.82047095230318	122.1283685853813	120.7033945048233	120.2596596055562	120.0626078609466	118.8997241784409	117.0918203462742	115.0870617306158	111.5889058456172	40.71816588972241	-159.023826221222	-319.9525952335609	-321.8962410857897	-323.1169848200972	-299.9124657185766	-138.8816535916835	89.80077688423522	103.6155912882061	101.5776857439061	99.5252493409307	98.05324748578477	97.2722656291802	96.55256002667029	94.96476319283171	92.91783037825608	90.97631076574777	89.87440761836899	89.80227976949226	88.27457890996688	86.75380203500295	84.86818377115263	82.82607695529315	81.66684757240792	80.45022507476973	78.85531318875034	77.35157352836866	75.76965141774248	73.7454726185921	71.60919567158439	67.21581945019872	-11.983954253562	-214.3435615159447	-364.7430461969525	-366.2718744698292	-368.49545218048	-346.9459928075018	-183.6647830569071	43.45440107972377	57.06938848875913	54.74202139408993	52.34316101722655	50.58489175244884	48.62391894346007	47.12882590031504	45.94924937417082	43.70488924626238	40.99449646158357	38.78768171445043	36.86389810958772
-305.5580849915009	-308.9060783777467	-310.4565258217868	-308.5162777943667	-212.9230238087516	43.74727392145683	118.9579760189994	116.8609275307317	115.5778623429001	114.4379545770341	113.7670421611557	113.343385029088	112.1260149377791	108.5302823534578	34.86899231235255	-163.3291409224101	-323.7664322406811	-324.7480730831106	-325.4084924212081	-302.9280788719212	-140.8165745799827	85.89350385868495	99.74762865088348	98.93718566796719	97.588412764822	95.95300674936307	94.15866655209598	93.08797253708904	91.99707380227294	91.28837723917741	90.05370044523798	88.21402289834886	86.54204207460849	84.73522022807994	83.98508153664217	82.27115930753978	80.04748248966028	78.56909790106194	77.48229336281337	75.85874930480522	73.89842931260422	72.23148621782347	70.65043871711416	69.14969298813588	65.14695447430523	-16.23025140625278	-219.7485096523576	-368.9862169417837	-370.7477125752812	-372.0975695474773	-350.3196770106139	-188.594853241255	38.37131992060878	52.09383003846605	50.76034710857633	49.13822713213759	47.48326816412794	45.94052273122682	43.91828330226176	42.66363431754539	41.20216571955595	39.59031375085576	37.41338260072513	34.95673280071233
-311.1605169352486	-313.7262398333241	-314.880758116244	-313.011702148115	-223.0023195297513	28.08814286347405	113.1369416889663	111.8796967593406	110.5188733667576	109.4160497249021	108.3451177245562	107.265201257479	106.4235149591542	103.8486366485959	30.07076217692996	-171.5067532064521	-328.9580792770556	-330.4346983213489	-331.3964405184249	-308.3607880007102	-142.6646164287064	83.3570997077901	96.21013580991777	95.30957011086612	93.62983479777809	91.57831102497457	90.10461609261466	89.05182357079481	88.04749813172224	87.29627970157948	85.70808586215081	83.89878548482348	82.60634958474982	80.89954755125974	79.66901995135929	78.45828924196219	76.97413182116618	75.67612154760265	74.2313044516343	72.67136848445706	71.3846915157533	69.93887285725853	68.57918842701548	67.237170966051	63.10696126355441	-19.76110550602439	-223.8146933634768	-370.7615915947066	-372.4163441565181	-373.8869816671302	-351.6606322876632	-188.7204392257268	38.0709494451593	51.93850267955494	50.55985808463495	48.80562763391146	46.89192199842424	44.76831229171765	43.21105771619767	41.88154378089203	40.03335982454172	38.33780454737865	36.59423255189208	35.10219198686457
-314.5898067118729	-317.3051715443924	-318.9418573756288	-311.6896461350368	-224.0899401101842	22.1305598981197	108.5043248395826	107.8702940469986	107.3413281395106	105.9571424244361	104.859214600767	103.7043057139111	102.5986583689371	99.60756744024202	24.99430533168766	-176.2928090753016	-330.7613003043805	-332.7736002413925	-334.5006753803142	-310.8696044198735	-146.5726863734188	80.09613251555605	92.86220743388857	91.43271670916297	90.24560334844884	88.51954050795672	87.15055358685004	86.32714876563699	85.46912483079944	83.85971067204261	82.13822949162596	81.22389718800716	80.25911587606461	78.59972889973619	76.89017749746077	75.31038739465177	74.25208623271652	73.20364973990092	71.8704699396163	70.203518624292	68.3783149391034	66.19208356531496	64.13990297744053	63.14102020013499	59.73227521800564	-23.67075654175071	-229.4622287199231	-372.9892210095474	-374.4731979827351	-376.5273054745385	-353.9406901452205	-188.2377792990699	36.62919167862583	49.56172380032106	47.3668415909388	45.31055607449693	44.12778641659855	42.92833967460118	40.88853514319615	38.9804780590942	37.33282040732266	36.21365953744893	34.77258326936106	32.99673203691586
-321.4617132198629	-324.3011001619318	-325.1344727133275	-305.1374640652625	-206.9881505295332	31.86394354877491	104.1303903998553	102.8718712266508	101.7887710379606	100.7619120703787	99.62328844991231	98.76780861890713	97.76310449749579	94.81427798138556	18.53166254567928	-182.8555408894263	-337.2419069045961	-338.4477468514258	-338.9877256604466	-315.0432573925031	-147.8954632774791	76.30128284971244	88.43231464209197	87.0942944015074	85.87134834179631	84.59884259368849	82.92875514358488	81.24219811736521	80.33742211702801	79.93415944980623	78.90874549484406	77.0775579202319	75.18140911828877	73.87961864983077	73.65045091395365	72.56482573359168	70.75025083546629	69.01607256986421	67.92747450113777	67.15194583741334	66.11722995651957	64.94757819204551	63.61514741927928	61.64748642704745	56.66973453171957	-28.32631577926199	-233.6970971651492	-375.7967566864153	-376.9193545776435	-378.5750368837317	-356.4045867421545	-191.3162498416391	33.81437433344746	47.08781635678451	45.83017604383673	44.10178374970633	42.76458909835705	41.47139566152225	39.35655127994227	37.67691253772682	36.24596088440435	34.82787683715475	33.42437678343714	30.90689002079876
-325.850851934975	-328.8026435039481	-329.8420141935562	-288.0465399812616	-166.2214302307841	62.80530855804377	98.58031108190039	97.74017788017065	97.68503911365931	97.03049193433867	95.47185681744759	93.91674551859737	93.47910535624214	90.58680053334515	14.90282880729973	-188.5769063955804	-340.3247422255301	-341.3908142051879	-342.7508146849598	-319.13705388858	-151.9846135938797	71.96505077887562	84.35369728634228	83.14010869078999	82.16636882625704	81.07341180785187	80.31965241390139	79.43399268172112	78.10238706551962	76.80993735243072	75.14752673207607	73.88755179397913	72.77028813568435	71.98801117199025	71.05650991789011	69.52957699325373	68.2221021759124	66.70331075086776	65.05013926719698	63.76744278981062	62.5689403410353	61.79432989995445	61.05170596117523	59.42112338390015	54.04971054158216	-32.77989861005676	-239.9331740863978	-378.7372753426392	-379.6402591592574	-380.4056467678531	-357.6536056262136	-191.6286286024143	33.12162106539017	45.85502749276637	44.04967527068851	42.94074714790796	41.47244102499192	39.41617351892575	37.90221393322255	36.55075299569523	35.28636451894255	33.90641399321737	32.19863409176418	30.31682232054334
-329.7971093327685	-332.5675246195891	-310.3193139221451	-277.9140477946917	-77.69592504220357	91.94350626361462	95.09889366165518	94.97698360915909	93.99515072886309	92.75196810177553	91.38724867800646	90.09645756649228	89.49631886794967	87.36362317928517	10.11585743701278	-195.965684518589	-344.6230110968628	-345.4859970127522	-346.0094518092144	-320.2898590172366	-153.4734843466597	71.45476047713278	82.35345320190414	80.97672872421687	79.88627844213356	78.99694849045234	78.26027834415568	77.47983501778678	75.97716523230186	74.41627378233214	72.67329322405708	71.39671564818279	70.53698666618168	69.85120187981605	69.03961897211906	67.60124697326287	66.32565968715923	64.91531141706076	63.37601831528971	62.44295596802797	61.00576398052681	60.13918696666215	59.16833040929768	57.67241554941367	52.62274479991268	-35.80412792340263	-244.8392923318291	-379.22101065205	-379.8714177509671	-381.1501732153151	-357.054888951007	-195.3782540843966	30.78942725657961	44.36821476073945	43.19041803914649	41.69359620910177	39.93547354486154	38.25169420884208	36.98126695718327	35.67459906523305	34.43149742618914	32.77779740581946	31.0909234167064	29.90182613481556
-312.8469808413411	-300.2332617017931	-287.822469918638	-223.0816458949078	27.26876718969663	91.76182645744925	91.22431085983601	90.37497216297926	89.11517885818469	87.67982701774812	87.14340335276682	87.13032878950631	86.56085332510203	84.00174007213941	5.15474239675234	-194.6876516237331	-346.9902966527712	-348.2533481013245	-348.6628133508963	-322.0449649658801	-139.1342968522965	69.53082203528065	78.68049022504756	77.71085290916353	76.42289156537025	75.61586024498386	75.39574809689397	74.32307224339938	72.00252701258687	70.09702060959633	69.41294091375757	68.7664445069606	67.90656382363022	67.21460219343041	66.45645652100015	65.1548332481639	63.59178167194287	62.37509415658729	61.98907654789664	61.24590868548742	59.10595482399853	57.21772359675302	56.39582168140547	55.52091099854476	50.74878462369298	-39.84835384000857	-243.4329910627088	-381.1075073434646	-381.9430609927079	-382.8999157688519	-357.3771238366002	-182.2167348844453	32.53862199047006	43.04091489111877	41.49339030396871	40.33512464215931	38.41787396425462	36.35004722965499	35.18973209000529	34.07995170193283	32.58679797989691	31.04824658672226	29.72663059665012	28.72124406171986
-293.2319518360036	-289.7840801857353	-227.6724086492098	-22.31830193961797	86.65625040991108	87.62916204129672	86.92755898922667	85.52578905882774	84.48287665206783	84.30693174478969	84.57949522078295	84.42580532033662	83.42513071482711	80.25786588830147	4.069009384722918	-196.3675190450775	-351.8813669313562	-352.4615427333709	-352.9824580731253	-334.4792988101744	-141.6614797585161	67.77141518462244	75.5004698663956	74.35883014870521	73.48334376327242	72.93300374744896	72.27242722681538	70.64444318981506	69.4493762755674	68.47176649877923	67.59246574004229	66.41361005045357	65.11969922425067	64.29023784100897	63.44422832505779	62.20394093063916	61.17243239339336	60.38042723459512	59.30227808944304	57.83791275096107	56.59707415843982	55.70352155510849	54.25519105950002	52.27797077468691	47.6148285577369	-36.94495310886487	-237.6589135548231	-383.2890952149129	-384.9949704699737	-386.4123941778093	-368.0672001386341	-176.8832883410566	32.35106763884056	40.25438330633509	39.4800077493048	38.6951684900649	37.395727848446	35.55374635674437	33.99055246906201	32.78748635031408	31.32143561830915	29.52823880471985	28.08224942372712	26.52487779741804
-226.4569985686197	-179.3526389996444	-16.66144104082715	80.40749082565034	83.69237077176301	83.55899902332281	82.48182082717628	80.76968513634192	79.80155364309464	79.52828697487281	78.95126926794403	77.87997706776586	77.61586487058291	70.41814825914362	-10.53124722334887	-239.5825830510861	-355.8598245182258	-356.0871246189822	-356.3849768050099	-342.9906823855471	-189.0833201147146	49.35108565849733	70.5112600259405	69.93485671485642	69.25131469670764	68.82124282645866	67.93194011468029	66.42301623035371	65.2230293777686	64.09387007529327	63.48219629182063	62.82723993643538	61.9107129864768	60.46904769520512	59.58204001368148	59.25637910995579	58.43619025680169	57.40598616743716	56.01923656190459	54.79824347988026	53.53056914162261	52.28741101828058	51.26619220482982	50.54946085908611	42.28672309321414	-44.1968893154262	-273.8621906416644	-384.0114172931706	-385.2710782740436	-386.499274486972	-374.854046841126	-214.3562337680636	21.62161565687404	40.29521023531021	38.58009227404978	37.41783401408497	35.94990378437103	34.63905179787861	33.64967773629718	31.94592842835442	29.93625073008366	28.46389038518589	27.18570478206095	25.86050294553019
-46.03153568107862	-10.85659416746883	75.11388769682264	79.66291698677361	79.23660210853572	79.14641670100468	78.63960925184256	78.05109171672592	77.18825666808345	76.19922775074224	75.10620535447771	74.55689007526098	74.49869197921393	64.47112178839427	-47.62912953021902	-283.2225196584628	-359.1694364519469	-359.7230107644313	-359.9860525210615	-333.8660944123534	-232.5392975511181	24.22524682215564	68.99608805949936	67.43536418556639	66.21941545422973	65.79798132792914	65.22921271606714	64.47050230094518	63.43305889886028	62.01085630592596	60.93808740980492	59.87659720148741	59.13270451879978	58.52845940876608	57.80326148880286	56.9443534645585	56.01646300471367	54.59674664581814	53.39593405146309	52.92630017914934	52.18519461707572	51.38760156437482	50.28342795339958	49.14220145659976	36.86838722262203	-79.07904853178186	-316.3364805198298	-386.2814776879177	-387.3666427584727	-388.5681346931376	-366.8526785498187	-262.2965740485301	-6.474675961145948	37.89200517045458	36.72540440117444	36.3263451635471	35.82464569548529	34.07086592025161	32.6947275877132	30.79184569139363	28.65765231101403	26.87389311236564	26.20517424241223	25.63255443049138
54.21879510428238	67.98747492954698	76.75825891547606	76.60149872561365	76.00850550753194	75.7220807657863	74.67275948246694	73.53080874669047	73.34735431727381	73.387364381423	72.8822901404983	72.21275163001997	71.66206987450414	64.10397904399747	-56.72886236410108	-260.9226311913515	-361.9614389970906	-362.2473062955172	-350.7455070941404	-313.4901923868931	-208.0273395155065	28.8211409981555	65.96677776560745	64.81479370634193	64.05165652085088	63.4214895975625	62.35402394434232	61.25381416034361	60.78147969567547	60.25925204763817	59.49228418464423	58.82254333379055	57.89333068339093	57.13637548516533	55.89538038384933	54.53338800660734	53.20115586745018	52.32461781657369	52.24437152838726	52.45569237156985	51.62484501872967	50.1613449920122	48.61405090631143	47.43758162606622	37.79190290956279	-90.15457723948447	-296.4773480995281	-387.6374787638683	-388.3156530156122	-381.9495561057337	-341.9561214582666	-244.187157453943	-5.651427820499009	37.75108325559665	36.18993221939945	34.54203013546203	33.25487834440793	33.81719247509261	34.6257154564741	31.31305937986997	29.24133131421513	27.00793589017667	25.62992309137235	25.00352855092905
75.19858630192262	72.95639134164161	72.80965560588321	73.21938872812386	73.70193703051082	73.21922552415454	72.47888459270102	71.56255528764093	70.55343793473666	70.72481041054853	70.75806620184137	69.84772453561082	69.28517725312837	66.30318386140983	-39.57708043685419	-218.6068695302574	-364.4049941435549	-365.0040433821856	-326.5245661194139	-311.8676731421384	-184.1214633917711	49.07462561330786	63.68077291794486	62.60194972772518	61.73665880968747	60.85119429803802	60.28598193200028	59.99749246555137	59.22338899974136	58.27835294410929	57.76723597834746	56.8294031897841	55.70682667293374	54.71760282585467	53.6157087017653	52.88308159105949	52.23194794078688	51.58929458494774	50.68143183383418	49.87403766599451	48.54238113696974	47.28574826590986	46.94593965163449	46.94469279806609	41.6279784058606	-72.95585079868982	-260.2689655601153	-389.3953709320757	-389.3584376187299	-357.9768818493986	-339.0271287094739	-222.4688969064205	9.864934405362362	35.86314421502607	34.96789615456237	34.34134191694744	33.34403379513185	31.56971710670246	30.1824819919924	28.85677806975616	27.90119935463287	27.01586272066743	25.7729133866215	23.95524019653737
72.1729765636755	69.95910889052475	69.35097567334289	69.0283533188278	69.35771722906195	69.49297583657828	68.50135704283339	67.29292267983713	66.46120931341183	66.96516172755001	66.76514690287162	66.10496596854072	65.57409870931308	63.59585945136287	-10.88276182527396	-182.2113669525131	-355.1402211383109	-340.9982565489205	-323.1562550238739	-310.9952419028253	-131.8948947973547	54.75268724760406	61.7526066873898	60.80418988991138	60.04842265053108	59.23314719717175	58.24174256121725	57.71958524922974	57.3245020083296	56.55674098778701	55.8323616222097	55.28726681842883	54.60264131144521	53.89018220187944	52.28130998571254	50.90135379426343	50.52127989417295	50.01831594891223	49.09847650584115	48.1530741904015	47.55807493049542	47.15782105931544	45.92458334312153	44.42570639368873	41.1546540930261	-44.65860288007204	-226.6057899782187	-386.7107410038606	-374.95006517073	-347.9028314299399	-338.0059110029824	-193.0899263141507	24.10815807516735	35.70318787676297	34.85678371414326	34.02833258537873	32.61037710339087	31.39792778124462	30.37434396090748	29.1965304611756	28.23523586638021	27.46659082968318	26.64552545882452	25.19372834513047
66.99789241339046	64.9886671138802	64.94008162017217	65.63694843333225	66.55114491476228	66.75433519015415	65.61792421996672	64.27386508677453	63.53333465771395	64.05461643588622	64.18971018252641	63.85869271580266	63.37592380788045	60.87163647421984	11.31967990893308	-157.8527458572456	-311.7516481814934	-328.3202578832066	-323.1111576019123	-302.2218804845064	-65.90240373372572	57.05453322287767	59.7736706581224	59.29858349940324	58.0055153228374	55.97675934786173	55.0647437848412	55.06392753006756	55.29085191550809	54.81887966791547	53.31748762545229	52.19062144154054	51.56841381888557	51.13012856144601	50.85755536151851	50.93959318257885	50.62503644676238	49.86596414980713	48.8526314680779	47.924305060493	47.2162979183324	46.58865480029783	45.93948780456242	44.84254737235608	41.75023303806285	-19.762063973464	-193.4511008572188	-344.9161181060442	-349.6889229491109	-346.1805119196091	-332.0560867144157	-123.9625792647429	30.16285438223213	35.4037950608739	33.97949991740444	33.25156217423779	32.76069255511891	31.91151360197676	30.72063188224683	29.39850051003339	28.40086482168289	27.20073309710421	26.16359359326106	24.72566194248583
65.55014964970249	63.2227711115967	63.47911215308767	63.73374929364903	63.98685446846676	63.3605844242831	63.28324921611758	63.18418410446827	62.08200083478707	61.45195814323509	61.41535185684404	61.43619330226227	61.6316607552599	60.34790669855244	29.24164548243078	-138.1897058205736	-302.4852492155525	-330.1654761542393	-321.3272381499343	-274.7678100402791	-31.94634833218248	57.99814754708788	57.21172908688223	57.01955779517101	56.84748576273839	56.38992487629795	55.73863961250848	55.27509041422107	55.15301253500144	55.00295727981145	54.04927166599521	52.3251732750231	50.84558068708751	50.45278807356758	50.85945023727768	50.87959235668296	50.55617303085316	49.73437796471083	47.82643931435979	46.43128168059795	45.77251566584889	45.29724366055049	44.69320172316495	44.33338248863927	42.65214119004017	0.5655285855417276	-170.7696835121955	-329.8940906889032	-349.4502657375936	-343.9906917519828	-320.6969591546778	-80.77446526109745	34.59643755003751	35.81539721606956	34.9437679420395	33.87316878529151	32.70480731790809	31.48618804598539	30.45285772756574	30.25262960581108	29.80611829902665	28.47946992250348	27.42866846544126	26.31053870784268
62.81502735352848	60.83696427257379	60.53462957243568	60.52456011980931	60.43934228008908	60.62647781471685	60.35817990390322	59.77216122053065	59.30964154213925	59.09418890817395	59.27888047545457	59.70323253436999	59.24209085318691	58.21722175686219	40.59287373403626	-118.2784892069817	-288.0065861836475	-331.8444583042182	-321.8561093035726	-245.7479614374144	-13.17190453547778	56.94336661064432	56.40234064533024	55.58011679465579	54.75784021371615	54.00787190056445	53.92363429163248	53.74368573669659	53.14191706515689	52.56921199775908	52.00862898989541	51.20481464655134	50.60962056499281	50.13156833313789	49.16578996709535	48.40639077662274	47.96093400688036	47.44918351211629	46.96036179619858	46.54387947426602	45.99695678098385	44.68458075133805	43.37213420502843	42.31385888716096	41.30003092597133	15.19518907852671	-151.6588352852225	-317.3269998100969	-350.4809333818462	-342.589896980598	-292.8449251814346	-58.04602771593173	37.68091348922985	36.47681526125029	35.44611874375084	34.40654892451113	33.53678944544635	32.59867005473006	31.53522832884346	30.58862756608482	29.71220366768944	28.68199474986278	27.7497450509162	26.18430019293663
61.00240254005743	58.57281194666814	57.7128331160163	57.12425164079104	57.05448818225904	57.60749979327687	58.06543483983859	57.95326901178245	57.01814938528818	56.62946857021726	56.21147639928554	55.89646365822125	56.62726510054088	57.50522738669704	47.0998725834624	-96.02779499153628	-272.0556910740175	-333.5181089875201	-321.8973930271663	-214.6779517557197	3.826007089339953	55.74404894679404	54.99190828928798	54.5545682462415	53.71980657878609	53.03819828927479	52.84587963048324	52.75881557837226	52.26577612635526	51.4545252936197	50.75674341928951	50.25170596384979	49.66932794769627	48.96004016030284	48.61299375887037	48.47835167551253	47.49774019400817	47.00389119243121	46.53284350051101	46.23176474415274	45.57226400658058	44.28193666538098	43.22252780093467	43.01149223849822	42.93222042756358	25.85756076286427	-132.8644233987292	-305.2392760933803	-349.1651793178157	-340.1169573802086	-267.9733105871414	-38.5025205245089	38.14716782270619	37.25856569725715	36.53327446551725	35.12933345108036	33.8177415289843	33.28573994135081	32.47603549566992	31.36966789109937	30.04890070307908	28.38040708816578	26.87425500824151	26.11541243163254
58.38808545018595	56.02291519316073	55.56687681397078	55.7314657967072	55.73673967226679	55.97631736910125	55.41712780511	55.27369148928187	55.68050916736357	56.42240840083826	56.49907324271322	55.90009420324392	55.30776790575825	55.28559413554711	49.05340518081411	-74.03886320966346	-252.3576212612203	-333.0699194058824	-322.6249219608483	-187.5579691828908	14.54257498968269	53.47568720351472	53.43245703340759	52.72154239530209	51.94830781004859	51.1437905430964	50.90928203003034	51.64929092180762	52.05226894101284	51.49033546844626	50.69090825612776	49.21939740657228	48.01214860222984	47.85037752189902	48.25254410475338	48.3268353636833	47.34020711593172	46.84383637542027	46.52514497423738	45.62462256860056	44.84321333850522	44.43674498292711	43.8352968267032	42.74637599247075	42.16707167808778	31.28022543792355	-113.4618426755007	-288.0354267591987	-349.4012129403419	-338.765983805899	-241.0650273795091	-24.34693736578359	37.49296797397852	36.47950036724939	36.1747576366065	35.27052793656071	34.24688987885844	33.83712479823777	33.86334647631747	33.24211719693591	31.89095253687202	30.02785593640959	29.21530766574222	28.76120190274781
54.43782010221969	52.51274708048493	52.64996313219868	52.92889294319667	53.54393592070281	53.98429486049508	53.84584351918514	53.85380895737296	53.67974902185023	53.33697831412283	52.7373429964353	52.00947726741634	52.03914229207285	52.69518857858287	49.01906169004732	-55.98993145448085	-238.090146533414	-334.5968738154095	-324.8297195000112	-159.6697001670857	24.10221325101853	51.76608368183093	50.88490463344584	50.95613449652092	50.66701996514001	50.00916734139287	49.33150870960381	48.80314084287627	48.77226510099447	48.34781107898797	48.50964184773011	48.30073207207064	47.47894068670888	46.86046032316938	46.86354703627893	46.83975320132794	46.61190553807688	46.02104255618917	45.38926555779443	45.05003987148763	44.57521131165538	43.90859709191466	43.48417051460103	43.17717036936756	42.3330008664098	34.03762644753306	-96.1758537600127	-276.3932893934328	-346.9414525568972	-336.944238359163	-217.6296200137559	-11.42611267946901	36.80293741911049	36.5016070489151	35.8824269547714	34.69038316543691	33.27348139031193	32.40020669344125	31.86976842172635	31.75012543958212	31.27999024557192	30.24660490478101	28.76307905431383	27.83870929022464
51.20363515312025	49.34310845473922	49.89011520083403	50.80743687562639	51.53836068706747	51.51158454970786	51.17681531758984	51.22561632767997	51.47709249584437	52.05177928057725	52.24962330401002	51.70459678842332	51.35803450105698	51.64856533406385	48.58465614167363	-39.58331570781507	-226.0448095844739	-334.2723278779802	-325.0325734045811	-134.3664826059221	31.20580184191141	52.58244518627521	52.39102363846311	50.80658384366166	50.09782243702614	50.05705060722474	50.2021739506765	50.31167473118632	50.15470921092492	49.02414057880617	48.2405392629035	47.87537694134335	47.75664580046151	47.59096067856871	47.09581131448232	46.34824394007035	45.33538861379049	44.98300366436257	44.83212145290554	45.03389672299676	45.03215768554344	44.40084746775983	43.49528495324489	42.67924052930363	41.96611476503466	35.75750087592331	-79.73513676174369	-261.7051245658784	-346.8348327063526	-337.0733525407873	-193.894938712482	0.9286005790847867	38.54593054700854	37.63444466901484	36.37273782173315	35.15856130687581	34.37289978113273	34.05446830532264	34.23295534300547	34.44636956754835	33.10809011934185	30.99060844870178	29.68715602669403	29.701077556553
50.488644541105	49.00864842930963	49.0491854778852	48.79086571175156	48.22468032004917	48.52412993013809	49.16240957911182	49.81141060873495	50.31681526088934	50.50241813185602	50.49982671321911	49.92603907425428	49.27437135382016	49.82761863389479	47.82664781640912	-24.80649286289554	-211.4769092581266	-331.8674225214027	-319.0718147335702	-111.0805079590636	35.45117250501167	49.60697329265267	49.38471109503342	49.08355054462848	49.26332001763049	49.25405331149821	48.86788159167082	48.63831381110401	48.32055132011538	47.9870158869536	47.95253417674547	47.18344370963899	46.59215856885044	46.0752938306764	45.61490746559133	45.4509513296756	45.24546013550378	45.44216598940909	45.53737587118599	45.09647913255128	44.07416788762828	43.5751079192342	43.14994661909753	42.28672325609182	41.96347186644067	38.5411457040064	-60.59789058636414	-245.0144128483809	-345.1828253208951	-335.8518610022912	-168.3215025010046	11.02034886312731	39.26144196226153	37.97234587975873	37.59630926634964	37.35883673748361	36.99847564564715	36.77783920085824	36.34566381838437	34.94755867282231	33.33816804575457	32.59722415364683	32.24336331745866	32.18543913788017
48.68662038973892	47.27252236758622	46.9688402105084	46.82896103749945	46.8976398738813	47.70193365653967	48.30886277894803	48.80121403310307	48.99731714433466	48.50113571618942	48.70441096829236	48.99696715898853	48.93482169016488	48.70220311348135	45.7303078556458	-14.30180139337099	-198.5420745308564	-330.3249188660365	-309.9768377080187	-98.21328088346256	37.66596193710322	47.64160134113396	47.27847035014975	47.17817108149606	47.4230427028061	47.49920799851114	47.0393467125979	47.08109213839245	47.23994828769284	46.472559093444	46.03540317878648	45.89912705733266	46.14449876484477	46.19225235592788	45.57553340614876	44.57768072642196	43.68735486578905	44.2321385399471	44.0833496430345	43.49694334321609	43.49454962173306	43.63240524605479	43.29915760782271	42.39328342638029	41.64415547538664	38.02061571594658	-47.65346671213447	-234.2613908848006	-343.9355844954582	-334.9128574982645	-147.8907158863817	16.82329398754496	38.85107582595612	38.52641556105266	37.85809899012196	36.91718129312432	36.02581120258503	35.67190372100686	35.73103113301534	35.1128605286155	33.82551436313969	32.98198838272066	32.54167623949542	32.26615126105793
45.84006033392956	43.84640089166433	44.26849072779976	44.95568598087885	45.70314069893624	46.11445534654843	45.85468684184153	45.83057244249869	45.81508359317738	46.2881995982323	47.1901818737727	47.31159385639194	46.96959519382528	46.74992015173623	44.87856816191479	-4.835177508021332	-187.7583846548868	-327.039527506388	-302.0256002247577	-82.57158611455591	40.19564917363132	47.17069742991313	47.30209598254598	47.08238276376417	46.89373411895971	46.29979633279308	46.18408651965521	46.51199086579098	46.9146001969178	46.6397870068466	46.3427977711282	46.21711145086235	45.6630121889344	45.62639548160948	46.16128306784779	46.24142198498842	45.52463749795189	45.38971788162709	44.94950722092219	44.82592472712653	44.78714099949244	44.76939624585978	44.99092809409336	44.41453605323198	43.25539256179218	39.76839550258916	-34.37736356644749	-222.5039131962525	-340.8248597370495	-331.0241517381334	-124.6777704432854	24.49676349435555	40.51008748990148	39.77646108206579	39.02984530342786	37.87374427557268	37.60636795921084	38.00102277617304	37.66701245774834	36.49514037451075	35.5179336412055	34.8438166611225	34.43038517794639	33.9520413800351
43.81278921890518	42.14753139350967	42.34119888947549	42.70294403395877	43.15126806665731	43.44688908583558	43.32173938592376	44.26171100500929	44.93892034081932	45.10890223864448	44.832334997098	44.53689849783265	45.0095282289769	45.15725444695258	43.64199008552563	3.528790451261415	-176.5617064687418	-322.1325561270879	-301.3532091975956	-77.25920594065633	42.52867071303689	46.60066250235428	47.07678465691549	47.3163498220477	47.50346500902083	46.72390340416717	45.98220967073178	46.37316628274414	47.08860375662056	46.66152513832094	45.76658631080119	45.21930105804114	45.3945962858287	45.79500866004639	45.84923757744423	45.66894456584578	45.27065911829283	45.32353667399286	44.96737364043901	44.87812578987996	45.01558548622017	45.17007777029107	44.91698943198793	44.01916997300003	43.30010741265204	40.58663882673761	-22.09274542716352	-208.0889252423871	-337.0709536163832	-321.52099735049	-107.6459972102962	28.79864328796339	40.77450617537181	39.65066789966244	38.85970121932769	38.12077817004644	38.75105567357241	39.25593376753454	38.83788812787435	37.63062800560323	36.89584195643369	36.31645185362413	35.67811084398966	35.58585884660704
42.02198233736277	41.09152310243874	41.65769507264986	42.0322399783395	42.16809945557512	42.12345874277483	42.04202156472888	42.83737294255772	43.80714578438273	44.14484993908241	44.09659135663142	43.76951826622428	43.27489644831695	43.04553716054031	42.65619577564169	11.0506509900647	-167.7326647303063	-319.5418570409183	-289.118415561133	-61.60434924940108	43.59955013728216	45.17176833129258	44.55425768198842	44.24940290392004	45.23266196992313	46.19849692308861	46.72571547063058	46.58455143403154	46.26598648734199	45.44092482720737	45.01524551758143	44.98807702493576	45.22119679962952	45.3861789926533	45.35292202749918	44.76588913718547	43.74829411538644	43.899682604649	44.00206723046932	43.98156329331897	43.62812824845992	43.78334036472995	44.53958664273637	44.69704554968263	44.25530503400216	41.71539264368283	-11.0905325575747	-197.0457656359051	-333.1001646048256	-311.6253905319841	-95.77737388067729	33.35572380371337	41.64361201006295	41.08610845106966	40.65779109799018	39.88653185922459	39.72579434361552	39.64310120932339	39.85971377196432	39.32493611068583	38.39398928389534	37.78879652866453	37.92137680273294	38.21976399510532
40.69227004524245	39.56714409017465	39.09349600529788	38.73951692091688	38.63718043198605	39.26858242428582	40.37508198347186	41.61057802698724	42.09722730157432	41.64647619632856	41.23724806740086	41.49654903606296	42.49732853371961	43.300140115776	42.88035382843759	17.41610510641857	-157.3166582681743	-312.1529508713567	-274.9642116258948	-48.98828541489814	44.73634743042561	45.46976003462845	44.66152383465658	43.47107486322597	43.65009472278081	44.49917182799987	45.4518805310326	46.10993000941141	45.60308662405305	45.06601143670957	44.4421377712298	43.98802849772892	44.79185251437963	45.81456399137232	45.83663703072932	45.61946881667785	45.24929522033108	45.48995905571508	46.0343959384652	46.02886763194238	45.61701709074225	44.50849618072584	43.88049027815032	43.96251210535428	44.17653483604056	42.90257773794156	0.2918630922855527	-184.1739760265871	-326.8288842948103	-309.8274952074814	-81.81205432485234	36.85215245574472	42.55780042996469	42.02655648927157	41.1921988558193	40.27090045304237	40.49933771370866	40.96484458062298	41.19446293025328	40.50224103437199	39.98206908268173	39.77139146988736	39.51585718890988	39.18873772934541
38.37266166498841	36.80374824524986	37.12222579553335	37.17239318839734	37.45551263624736	38.65499685891967	39.70147421709663	40.3294071204007	40.18277708688973	39.84752589021039	39.34490086561638	39.96141741678025	41.31982454850478	42.83191123913022	42.92936624414244	21.88001386655927	-148.1202651600975	-308.8674098346596	-259.3188286518886	-37.7722512680235	44.62471740388168	44.71379052449566	44.54362899754415	44.20515689235503	44.38599637641863	44.44388208071712	44.88902425832066	45.33473474740811	45.10534087590673	44.60201041624839	44.4316478949566	44.40147246707448	44.72142588774869	44.79125277910896	44.65006543154112	45.16221315061176	45.71972867248451	46.00682338431096	46.19594679531946	46.40288243119443	46.47531053925383	45.91429003210118	45.2858137552227	45.51855404229866	45.97610910702934	44.35448520636038	8.392669687746718	-173.6812002312431	-321.4879793724201	-299.1356017143846	-74.76258751055764	39.94526117483673	43.50764464385145	43.2284215959051	43.21309448980196	42.67683997223986	42.68753414285885	42.57766087551693	41.61835282671314	40.86370904822007	40.39281231453856	39.86798488501972	39.83427463867059	39.80194198493842
36.27737533681443	35.0011202838831	35.78448634461967	36.67243853989152	36.47815719423335	36.87645406000658	37.54700795713572	38.23314633271448	38.99213249683706	39.78479042452275	40.19442333521641	39.57705243684111	39.18923342693131	39.35268668224751	40.030125982654	24.54936838649422	-136.5712339974486	-301.8792564341331	-240.0550193027344	-27.65785477589955	43.33351120639236	42.83703185498598	42.89880148363227	42.81284087934978	43.20406033278232	43.721417106979	44.35011291835616	44.42795570273364	44.19650253865979	44.38375664710645	45.32456921355509	45.38958014490862	44.96858281173337	45.31399905610368	45.41022403928326	45.47373750008148	45.84289750889167	46.05261345913561	45.94710614361549	45.5363211235138	45.54539059863839	45.70151123480838	45.61522760302989	45.54049390163271	45.48905360025157	44.36126112705705	15.08566059961925	-163.9530557865454	-316.9484184094591	-286.7701459697084	-60.35347064417408	44.13448189496387	45.8118297215517	44.68809461426684	44.04211169385019	43.64117557942564	43.55807562481095	43.42726132064831	43.17449520383815	42.8144466065749	42.25851110234026	42.25569320218011	42.19668721576812	41.49263143569738
34.48533523983431	33.28313185807556	33.90496874134504	34.76312671992372	35.56397014034297	35.700595958279	36.09509553995284	37.33459938331364	38.06805265539273	38.38191059288516	39.14718647200976	39.56338415795261	39.95883760333061	40.52761272039515	41.07203444019149	27.70879153906958	-125.0773584629519	-296.1623191764212	-220.1012755605651	-18.62329426051818	43.34114489827749	43.11338935004528	43.30636131276742	43.58268689676999	44.18800515906577	43.89624332481532	43.0786598551079	43.50688379834889	44.98021936223137	45.47313369481668	45.39496148986507	45.20955423485668	45.50360073217638	45.96831428120089	45.90165980282433	46.6304077672109	47.27421889650822	46.74004340834432	46.62034944084837	46.64773776059525	46.5964841481354	46.82435163466755	46.83562439972997	46.06931646902564	45.57860200160292	44.7829448067713	20.98277538741303	-153.0686768671537	-308.6640646385355	-271.6330831774917	-47.73200985976348	45.77410834593536	46.34774737388568	45.67205557543826	45.96693853015819	45.94947220467776	45.57388626675839	45.73932021750772	45.49464935949055	44.88103586552393	44.35067964984535	44.28000315792025	44.66379645717655	44.37963701025643
32.18301522010512	30.271230362719	31.34362140141963	32.34569602462921	32.91778360990622	33.84475494094877	34.9490528477487	35.86008734136178	36.08093609062567	36.64907231127947	36.95596995013241	37.26232276836075	37.5666352262871	37.98519776195459	39.25448585083862	28.73976528487938	-115.4721865049235	-281.9676032623098	-201.2093887106154	-11.00888133171159	42.72078087088781	42.92765472259535	43.75957585626608	43.82875756155019	43.51725316124995	43.46722871699146	43.77942935449522	43.9633225062737	44.06810979728368	44.38601730890957	45.34387858667361	45.44588567530326	45.27128673379514	45.84670082818036	46.37311254132311	47.02670949054391	47.50158488958283	47.06173904912509	46.9942580197964	46.68475513008775	46.04661358351757	46.2231223273285	47.18714969275044	47.67994780862927	47.28381792729169	45.87107742243126	25.88514729347168	-143.72110059355	-304.954205089358	-257.410614790797	-36.8086491584852	47.46013505780888	47.8454496988943	47.46203385968545	47.14571339129327	46.91621044529649	47.13230780640998	47.21833089954373	46.78713208091398	46.30459196963369	46.24883563801018	46.2055822912896	46.26246403287018	46.04714187795111
31.21602685075175	29.83515065079305	30.26312216711125	31.39628795940578	32.62582257011113	33.3751324602124	33.63917963232359	34.01404114285839	34.50451931942195	35.86506575761257	37.0820765885295	37.43487510519896	37.79551805255426	37.58951068660804	37.94642419473064	29.05157860790604	-103.8221597436288	-267.2183741470537	-184.0707338504674	-5.251275037994873	41.57141525408736	41.95875976382194	42.59413771230305	42.28119739664874	42.32824255874067	42.59101216663458	42.96242024353069	43.42017005666168	43.89673109737697	44.3358272007016	44.62428499493637	44.08664079819181	44.08351704364992	45.65152875332035	46.06914203186244	45.96517869539889	46.41337546188856	46.26763461531908	46.73560815044431	47.58877345444409	47.82635213396418	47.8553962949523	47.70884931190119	47.46020161917119	47.66400347918864	48.18193896372071	32.00190630424544	-131.9604777271386	-299.5518867223539	-240.5728017609197	-26.33473148595579	48.70685995250017	48.47752209135678	48.19922927936716	48.05369922159718	47.80184122009604	48.16347527030723	48.53649917331313	48.76934316956959	48.86698003966796	48.19118340925831	47.41239674924327	47.25945034812611	47.42497597056666
28.30598115319668	27.39781355024837	29.44001879296476	31.41397232462046	32.40124233049377	32.48451777738885	32.47770722681778	33.07229545915331	33.2636903807543	34.19942447711483	35.39822892998617	36.23416183760932	37.23561263456034	37.75957336968261	38.59434463719239	30.91858718243967	-92.32491815206302	-251.5364277809345	-167.7147961438795	1.371377188946241	41.5501386184942	41.44019862335449	42.54971697392835	43.38030816935537	43.69404207418864	42.98744651600458	42.53206371530564	42.84681481384672	43.7427964015518	44.34658069860041	44.74605622896991	45.45357947115383	45.7253291670807	45.99060524286995	46.44710055387509	47.34441014858373	47.47582174696544	47.26344660573034	47.95743880113929	48.93846852508932	49.45514937133049	49.41924449891462	49.53075689091406	49.87250446552275	50.1788058589749	50.2269220023756	36.72063807942618	-119.3450790904588	-291.7831814147079	-220.9991249335642	-16.57391796750733	50.40538307897702	49.80383911408046	49.66704547872052	50.11857169454186	49.91148895221909	50.00704982095505	50.59124963466439	50.60099535271365	50.30079147216509	49.73928675742138	48.87627209018638	48.02558550826876	48.33944769537715
