1.636290911542801	2.373256829172306	2.158619906560489	2.086596417383134	3.223695872992721	1.983584483718687	2.000777910672923	2.892281634128949	1.714519323794775	2.273483826888196	2.639860778763705	2.239545254001087	3.224543255745857	2.486715730029573	2.319126678004295	3.342705201441959	2.141109532501787	2.107364952740681	2.785820986603767	2.102356787946519	2.912583088689644	2.982015391266714	2.24651890694895	3.24600616900193	2.82990274094459	2.48058932935237	3.358484665461447	2.699497931027736	3.142162792613135	3.566880303627613	2.865870579311149	3.827960871672758	3.849296544701474	3.603255825058113	4.604120807296113	4.167694211007984	6.237345096920762	8.940399886534578	4.045685368497288	2.113865299520285	-2.451122264705191	-5.303342776533782	3.897431790460587	3.994484918565377	4.612109484643042	4.38799186545134	3.424694363760636	4.248244264378627	4.140856155456959	4.029278475233696	2.473306514667911	1.536528607570062	1.808744693869812	2.47068213069565	2.956693425134517	3.695568626546446	0.1571090628308411	-1.790264647488129	1.047614912688005	-1.016449696332302	0.6286055299808595	3.88560857297648	6.953318995083009	5.444530393046762	2.114229913459667	4.669407816349803	5.340876288200434	6.33386120098271	4.569028573160949	3.205736357694605	3.181579731530292	2.595595849292295	2.690421069458807	3.183880108019594	1.228695160767757	3.302979390723067	-0.5855102699383679	0.08229792471206565	-0.7728892205216198	-0.4752088351451675	0.545456650170081	-1.43880184001091	-1.233906825946406	0.9079957778874359	2.174701463000474	0.08952537853065223	-3.540087549261216	-8.520834741060526	-8.292189756220523	-9.598102752514023	-10.17205444640672	-4.48786565344767	-2.360810704803725	3.717045662511964	5.151752923762842	4.618206072922021	5.053782880391509	2.808915945298168	-5.939373590180367	-6.118180148756664	-2.91092715744935	-0.490451933329723	1.363610108293642	3.98108869813268	4.497459154197713	5.435069941199345	2.85991505503921	1.460105260642422	1.130754165828193	3.074257884581812	2.471593312137429	2.819644957716491	3.991884828717275	2.70992839316159	3.898718241310917	2.045643246399095	3.389648799101451	5.493325380927445	5.12613980076685	5.0146580225462	5.997788873123454	4.310746144093855	3.531597396406369	4.277527694940318	-0.1242378799263406	-0.1484811377895312	-1.904656559165232	-2.730138800672876	-3.261037655235441	3.312476372906303	5.458880820428249	4.213684988231307	5.838572695321773	5.517941754251524	4.827176467353866	13.71957065405309	10.1590037869089	5.67602452392407	-6.035934930618396	-9.198047592245075	-7.505087958113791	-7.837410076387869	-6.416019370629556	-5.620266107901671	-7.089152091507913	-15.72307764612651	-25.00285785011351	-15.36130067492832	-2.965849608907092	-0.4286145611699794	8.019674227943369	16.90418394216181	3.834025066599679	-5.987060654020979	-29.79173374109632	-48.96150791332025	-33.20596859600028	-36.48419474970478	-32.10295677472027	-22.69962777510364	-4.613921080462433
0.8891789200508811	1.736493528411756	1.508328959511346	1.230376422257223	2.377653054229995	1.450431486842035	1.70320615443552	2.591708815137963	1.421474989985199	2.117461852817314	2.469795352846631	1.79683251689039	2.690348051952924	2.087670867529596	2.341347128083953	3.484188292320368	2.26667418868783	2.526510812999732	3.633465294848065	3.140566444329352	3.922023637436723	3.953836616905392	3.472522981697921	4.529785304802544	4.006569612347221	3.831287609253422	4.689261088799185	3.464277454279454	3.604197453944835	3.825311488491934	2.927415617555198	3.43653416154234	3.160552788605173	3.044105642910836	3.749396646240257	3.074036857186684	4.900685911669825	7.673142138180083	3.058572682319891	1.462312682366019	-2.682893251358337	-5.31077056202389	3.601468993282197	3.700818440997864	4.260739875617901	4.614315979750018	3.76672828574965	4.721485875984627	5.002748753522837	4.656694855568958	3.34495870073124	3.485575972891411	3.139288228420355	4.176505726605455	4.519237597418396	5.156618071971025	2.249909543337253	-1.088094826898669	0.5949572519828052	-1.819257417661674	-0.7090669651927328	3.585093976967755	4.067071530772864	3.772215396373895	-0.5486714782059607	3.748945420687733	3.149524231982014	4.180327866655944	4.143920034989605	1.732689182443892	2.90463712378164	3.187049344777733	1.681339204878213	4.339822800113552	2.570682491372509	4.185018258126775	1.511753543396026	0.1858891644885716	0.8095643753201784	1.574302638513245	1.360247104699056	0.916919572681536	0.1621009330172001	2.04685707198314	4.639485800930061	0.5811122520196932	-2.415005091434068	-7.076274082888631	-9.907293895201065	-10.06715621387912	-11.13580061831726	-7.231890600252655	-2.722931162157465	1.574775381653581	3.254428422373849	3.707019186490015	2.261625452540329	1.853235684723131	-5.959230992863013	-7.268259032556443	-1.450399592793019	0.6110768374298914	2.223106406343504	5.08972836570706	5.284432196207035	8.651546839548246	3.607367503496107	3.358840552284619	2.886466454423726	2.808269199923643	3.492323484535063	3.178596991698896	3.367356133923749	2.992417483827239	1.794207823343186	1.577389989561425	2.753250733482218	3.446596736810989	4.706434212539079	3.329683275699381	4.240901144586815	4.384068841747649	1.278824178421473	4.383538130507304	-0.7942579959844807	-0.317665523007463	-0.5276793028492648	-3.13776834289547	-2.327693896060737	4.568268660980948	5.867468800927554	6.087960050077982	5.669057559129214	6.663111622416636	6.588340103695145	14.27178279834766	11.48111688813151	5.091981543397651	-5.631840808552397	-7.813823211327417	-8.053307955985701	-6.98259261736348	-5.728120941088036	-6.093976224097105	-5.681563316111351	-15.23173701303199	-21.91570164114705	-10.89203122474601	-4.632931728431004	0.7510983183519784	5.597523219471213	18.01660721341295	2.354513945260351	-5.072523622307244	-25.64339932214125	-45.77753680911178	-28.45045465954399	-30.68964941343825	-31.66275435242642	-21.48810296619831	-3.656830310648047
0.5287299150143099	1.777159328610878	1.854522494801131	1.643001065887347	2.7948328900859	2.067994762829812	2.238522551182314	3.306610423325765	2.137380439489789	2.725350895999554	3.16368350716084	2.194823572721361	3.003443537360681	2.690664290312498	2.45713887850593	3.157149505934058	1.442101314589763	1.477988304705605	2.561146459509473	1.762855538088616	2.085593011693618	2.349759000466747	2.019095070678532	3.093508320573392	2.452588563390918	2.114456169479809	3.718886650480727	2.955017272265877	2.64849164962061	2.901288098563327	2.390685518998225	3.41982242464951	3.590294869021136	3.251836806572101	4.68239972849733	4.507619249705613	5.992901760042514	8.417274112557834	4.540702743448037	3.76103892538481	-0.582151465069046	-3.233309297221695	4.67491216779581	4.344089065663638	4.205611649478442	3.913943554837488	2.908607202001349	4.003037325357354	4.054086792014687	3.412006844188454	2.121296086622351	1.910343350674793	1.897159670028486	3.335493455648702	3.556451140869513	4.561878541375563	3.839830753402339	-1.644785502621517	0.3109206002525298	-0.9244986320682074	1.235896042893728	5.505681117857193	4.541934642273418	5.616014992173632	1.915449909414519	5.630793871360083	5.505405793096998	5.138538318433575	5.791880003082042	3.373386763133112	2.241456965006591	3.530348512088267	2.516819537940364	4.456109018080497	3.061409845566459	3.330453964478465	1.053266057597511	0.2973464610511201	-0.6691175382379697	0.2214702620124172	-0.04628498138868054	-1.002325810070715	-0.7426553155078182	1.071867174229737	3.686361707779497	1.486682020118906	-2.28811456614244	-7.027366147788598	-9.76741406837732	-9.550444462424366	-8.447089077560349	-5.000477349314451	-0.6568228250346237	4.264433741931953	4.628375397779109	5.746948603163901	3.946497244792909	1.230869590386874	-5.780435052640087	-7.134056165868742	-2.07685686499326	1.387787455714715	-0.08929908410436838	4.48088080405887	3.627905382458039	7.183582921902826	1.225223112378899	1.17068390882514	1.578138121858501	1.141328927629502	2.104108326934011	2.531348767204918	2.020742664303725	2.490689462973023	1.874240682279151	2.237055289262116	3.283133521647869	3.922843549984691	5.949742087674167	5.471741225373989	5.776919082265977	5.948540962488323	3.193970360343201	6.143001840222723	1.343586537235296	0.7033921887907582	0.4312835192520197	-1.553641381971374	-1.73809301740539	5.455583116969592	5.611387983281929	6.45620296392417	6.522765791079109	6.007866660373793	7.883758023144082	14.76107409764495	11.72152943348192	6.026923699669624	-6.417176493905117	-7.529450405990701	-7.562287933831612	-6.857997210496251	-5.005423400773907	-5.88412093183797	-4.998192201166376	-13.11490628869046	-16.9704818758471	-7.916328621588264	-3.855766919395137	0.9931389685652903	6.024056644922439	18.19581078378997	1.280396370236076	-5.768776179384986	-23.78607751767504	-44.0972752456953	-25.73542153876679	-24.11685425829705	-33.07741389066541	-24.01289721280546	-4.435309608569469
-0.303211295842857	0.4556271391884366	1.400093930319599	0.6960734466797476	1.495431120844387	1.214531005340632	0.7502137092649264	1.784623427775841	0.9391344511343505	0.9115061886343483	2.105531388691816	1.318582237302735	1.76323062745314	2.161385979579109	1.537538443849598	2.189920452391789	1.175730865449395	0.7893246802698286	1.862636973282633	1.070129987785549	0.9440947852715453	1.557061334579885	0.8089480586979789	1.529273042891646	1.380921305629499	0.3057046440924296	1.601061269692764	1.559623915107522	1.129838942591505	1.917831479951019	1.374453406479461	1.846378410722537	2.596352862269896	2.051642632170797	3.133282754969969	3.435184077804252	3.467832542920178	6.022317239342328	2.677129740562805	1.598921615033987	-0.9442848513449462	-3.549421467480215	2.920180152164676	3.484944110031847	2.352199996556692	3.147356836798735	2.69484882212987	2.335611806950283	3.578760937038851	2.743927215853319	1.221065812165079	1.548408444579536	0.3717441997494007	2.621830338058089	3.224075440744173	2.383863498327173	3.112196113560003	-1.793823759414408	-1.851746569258012	-1.98638891924179	-1.10288977874302	3.816149629662959	3.632703225353225	3.193503839816458	1.759621474577671	3.344371684818498	4.190330348928455	4.017256453738582	3.149050692029959	2.58117777059374	1.040259023278622	1.211655257397297	2.141040223777736	2.321557649255737	1.44913571102029	2.86507239707862	-1.133429409142309	-0.3110236267980326	-1.672136291454763	-1.798872289799192	0.351187694899636	-1.046327457702091	-1.082361375637447	2.402328044043088	3.016886227350142	2.386038428360507	-0.2883058773377343	-7.272081986525791	-9.331033473688649	-8.93770836982867	-8.334600980654159	-3.998344331721	-0.4701824486228361	3.888112763608433	4.953365094820583	4.129225240660389	2.716261341844756	-0.5042639692678677	-7.666857844062179	-7.351475554252374	-3.335301910224189	0.5339448320332849	-2.522493467192589	2.662904998610202	1.9565743783578	5.525786276889903	-0.1923411487766771	-0.01543296715158249	1.240523262350735	1.116024349855024	1.758880190651098	2.90545041020664	2.363361291692172	3.188568077966011	2.586880917858707	2.802411197145148	2.86306998331429	3.326561660132256	5.212697549589393	4.532126304136682	4.632471940861706	4.106471643015084	1.540397237979278	4.179517419527429	-0.8910585481760336	-0.7118790721576715	-0.9303465361056169	-3.572785286693716	-3.389576850342792	3.423464818513366	3.840037947994688	4.897959572523632	4.571680535962514	4.59578822956064	7.331936936033344	13.97380743408348	11.25677651561523	3.768457347212689	-6.282111981066009	-8.675284849485706	-8.07113917667516	-6.741942217295673	-6.847453362055603	-6.524298354489474	-5.857085610243757	-13.67305057508429	-13.75288906913647	-8.224001095366702	-5.883331862830346	-0.2690457275703011	6.873033361888019	16.39692377796086	0.3513906319187754	-6.063963213790657	-24.0836193756877	-41.04373175790511	-22.71852801536465	-19.90185371535745	-29.26087274898032	-25.461892979391	-7.089382396720566
1.66231451043268	1.192050946073095	1.04317635345592	1.955716076764247	1.078972876673561	1.274687863800636	1.813685397070913	0.827298284253402	1.275568614089025	1.12287271786704	0.812724818538527	2.228969835087582	1.773970721572596	1.786195708014475	2.971569166000336	2.053123546634879	2.451854725376734	3.245859575388977	2.326404918969956	2.922276433574325	2.796987169598424	2.24266093663573	3.073325110607584	2.100044439984231	1.874291134882469	2.588982402648298	1.847331376852708	2.330367876765195	2.358082075051016	1.491802095760477	3.016895114498766	2.818322198444321	2.530239839500155	3.996002220377477	3.634759690954525	4.066771875495988	5.154792994079799	4.931724442765017	3.672896706524853	3.155977316068402	-0.4819267469472379	-0.8581619204569506	3.363363820737959	3.496081728110539	4.169199943427657	2.707562605535713	3.309328934224595	3.93435306895708	3.29866602545053	4.159768761290252	2.46785692469507	1.657810157380936	2.439236097632147	3.031240465604469	3.661164560815223	4.54072136726495	3.533920051492942	0.1670865874259562	0.3308597697634923	-1.572243775486413	2.207266811013596	3.58670213730943	4.213136067241976	3.349577319779428	2.395670204295811	4.204699881104716	3.206566618964416	3.915450955893675	3.819602156311021	1.725532127500173	2.022058423980525	1.869524713320061	1.854569403107234	3.955395738771813	2.414156694900385	4.128386498444343	1.201404431163837	0.3203227321030226	0.800788966702612	0.3668526136036689	0.6329732105273251	1.164291099611773	0.3225174156925732	3.101122778199851	5.410778493400812	3.477200416071128	2.046303624184702	-4.759631822818619	-10.35844529487099	-8.046361661897436	-7.355380178745008	-5.558032221761096	0.4124886372205765	3.400236997884576	4.571318792399325	5.315880393321095	1.072791099288679	-1.296777672357393	-7.310156372795745	-7.589833958282952	-0.9658329905701066	1.224083163896694	-1.959360004292421	2.859095076266158	4.696006402206649	6.101362501567337	1.738609431313762	1.710492706788273	1.7634395835546	2.899437930070007	1.594155859766488	2.716348729924675	2.526482571464157	1.793715367174173	2.445744401634101	1.209737463610054	2.532185987083039	2.659864922698034	3.310958155652997	4.584021602447592	3.629777971239946	3.464978318109161	3.481607948822329	4.311319681270788	0.2317236755263821	0.9445503410886431	-0.7897818148830993	-1.762247803712398	-2.51388763593468	3.737162036906284	5.223704524255936	4.518720238662809	5.046691189697867	3.838920723532965	6.985550256271608	15.06623999847716	10.21222111802967	6.188399301310028	-7.861884524066909	-9.048813095617788	-7.651644147779052	-6.14848099669689	-6.232447974227398	-6.78110475661515	-7.249473128245882	-11.81892046649023	-11.03230157474877	-7.685934743216876	-5.34716678112477	0.8855024285157924	7.444727558673549	16.37814402587173	2.132596286104217	-6.419812220579388	-21.27820096407345	-37.9710219214578	-20.67450896837886	-16.34377154739946	-27.65486966159756	-27.84107290150132	-8.333361344323066
-0.4770707223133286	-1.823795737643877	-0.9641233353454481	-0.5169539623918809	-1.234975396527716	-0.5619323686280495	-0.7638950556647615	-0.6046835618294608	0.6079976565852121	-0.08628034332923562	0.5901599610635913	1.34811445551145	0.3405531016064742	1.191980782481323	1.654607292263336	0.8223549522140274	1.407323455450296	0.9649294360713156	1.001190242109942	1.734342019231917	1.112421327269885	1.616761195904701	2.25053922325651	1.238735087598343	1.662107164550662	1.04552246652247	0.6362670130097285	1.886041455310078	0.9125122414791349	0.6702995731022838	1.795575495497587	0.8564944300985644	1.517023349596229	2.568437146525184	2.200191614677578	3.469790895784627	3.484492186574926	3.448047813922813	3.474455252660164	2.580904818555382	0.9735571748656184	0.7065738641776989	3.192771506183362	4.076403390045016	3.539794922778583	2.563493951600549	3.493779899891251	2.83267291271909	2.641696619466074	3.625161276049766	1.772853571635324	1.460672206605977	1.359178751016771	1.549815641573332	3.018748263033103	2.635294783478912	1.709198160874166	-1.814801457477188	-3.015309867821543	-3.512079543645996	1.16269350107973	2.072236285191821	2.218056921221887	2.5695912039007	1.986444922347118	3.363557500051684	2.865355826825407	3.230162676031568	4.105270800254175	1.671707727943158	1.053278360415561	1.538698691326999	0.8387777078055478	2.222734017782614	1.460375097701444	2.09579500510381	-0.5547875190920877	-2.192653404359589	-2.416786062655319	-1.343311407835245	-1.67922740103586	-1.927039343521983	-1.82033070038915	0.8876541587219435	3.925681072464158	2.42951687538698	0.8738103525572569	-4.48678120642694	-11.8207938262783	-9.604907537799363	-7.802881973754438	-6.808561356976952	-0.1803895022421784	2.411419196960651	2.767716841835636	4.08874638678185	-0.6506512156638564	-3.42442884189154	-7.648996440936799	-7.571992609137624	-0.8334453606382795	0.8901296025526335	-3.540369452151026	2.661489865716931	3.807754246215381	5.416269946079865	1.565202309774804	0.8386229998498038	1.603279666327126	2.376081628889551	1.137229184726721	2.711754276911506	2.041726895510692	1.873347706238292	2.267133447921196	1.95635756745969	3.040003331757816	3.155447099378307	4.584384398408247	4.481671792465932	3.735237422780074	3.623692121072736	2.788661951376525	3.15519847148812	-0.4829817143324817	-0.7558961323602489	-1.668269507282503	-3.682797210673698	-4.221912903561588	2.930535535000899	4.406328018633758	4.416218019490543	4.75789462423586	3.095280391250299	8.721080816047106	15.62408014383664	12.5579044882611	4.200587137273487	-7.112633392639282	-8.122623961731279	-8.6137876421069	-2.942074786202056	-5.105290629457386	-7.594915922133623	-6.986018065895905	-11.4670102878099	-10.15120266375857	-7.814151304879715	-8.159996729362319	-1.271742710599256	4.954124201354489	13.89287253351426	-0.7222658004800451	-6.634165958364747	-20.38079916502488	-35.16332050800042	-16.7545362125295	-13.52217965488376	-22.36295264589717	-27.38403369066373	-8.347505671763656
-1.506429033250924	-1.612613128731482	-2.208029294651396	-0.9076430274171798	-0.9683351031731036	-1.059505047269795	-0.1391189149428556	-0.941623526872263	0.008745760099145627	0.7122107991160647	-0.2992703147758675	0.7283678751086882	0.7411073611535812	0.1738730180159109	1.227755380007466	0.01473962304999077	-0.2024788065891698	0.6691007224474106	-0.3942451141469974	-0.5671350509655895	0.1919591881783163	-0.3294851386867776	0.653738206146727	0.3422783515334231	-0.2047202423682393	0.951812628685957	0.5236031951310451	0.8513177894069486	1.396695525749919	0.2456635008607009	1.177087339786794	1.002805499335636	0.1694314824039793	2.03789353218599	1.793947156323384	1.065871924201474	1.906922272081374	1.475506114488553	1.205174565211564	1.925344443088989	-0.5924366727801953	-0.1052792578450408	2.595639143715061	2.10252561611901	2.72985946119752	1.64605640705463	1.541839860161417	2.767198713356947	1.813109240416907	2.679643540609732	2.441118400572805	0.3869568233012615	0.9084961031101102	1.668754656454439	2.032331181953396	2.54588619208107	1.247486549472569	-2.112236017779423	-2.177543453616636	-4.044212259660526	1.99071523508519	1.782372887666497	2.193160859120781	2.813151575737493	2.21486205002816	2.907204604807248	2.739914821786897	2.956466502376543	3.538195785709149	1.346285044738124	0.8254811641875222	1.394124445859234	0.7699338927138797	1.913279159664398	1.690829723612751	2.481356311467607	0.4621379681852886	-1.282709747890749	-1.93184800725885	-0.8959926755476317	-1.184918094010072	-1.383350155555036	-1.786255529141272	0.5846908094679293	4.245557772623897	2.437090006611925	1.021700773850398	-4.24371982115531	-12.12176906769719	-9.553788770553865	-7.793514902877632	-7.109688088983376	0.2775350195706778	2.183862239907285	2.478451849252906	3.557383704694303	-2.265280768926459	-5.358853002273008	-9.218471473111094	-8.76638174813661	-2.93646117016533	-0.8289500983273683	-6.899965372611632	-0.164070528831644	1.299023360829096	2.250669968275815	-1.048473471787247	-1.321752683165414	-1.333578639276084	0.027831966513304	-1.010121231959602	0.5526207631928628	0.04209182048430193	-0.7797340616871224	1.097630396072645	1.178927901590214	1.874058343616525	2.228182631821483	3.958967363645343	3.643027357425808	3.332907075682897	3.314143431750381	2.863759344442997	3.10225642007731	-0.3719031352229649	-1.449718394103456	-1.8704916256263	-4.594267882930808	-5.591003503011279	0.6205255762772595	2.331318278196932	2.34731533455215	2.335031142785738	0.3951836721835207	6.340398562730343	14.22462497728088	10.4722578690978	1.907074234792844	-8.036821474453518	-9.799656542475986	-8.46964973371837	-2.06517243883377	-4.832167939269539	-6.565326934713312	-6.823847627990517	-9.12592856257038	-7.632730865097528	-7.509073389719333	-4.890124400652894	-1.277316801709503	3.830278124544975	12.14522376136983	1.814245240496803	-8.485919219353946	-21.10445711772354	-35.17333143574774	-17.68266730102414	-14.90263477040685	-23.69770966497549	-30.26636706815998	-11.61615775131236
0.3876874133882211	-0.5959274917840958	0.3114799415909602	0.5497206859140533	0.08527182653938326	1.408701980588148	1.255639333732461	0.7943138105640628	1.908767462650758	0.8741282421071901	1.364372417401	2.029266294296576	0.7931416099745547	1.370536514769356	1.610412882056607	0.6650768863005396	1.324391837226358	0.6671907845000078	0.659345070562722	1.358725707460053	0.4306099842608546	0.8695307808711732	1.579075203396087	0.9551190938636864	1.746960915734007	1.468038438155645	1.295625969378307	2.505300277973902	1.408676630458558	0.9045096328086402	2.145208208117992	1.316898652415375	1.666130808695243	2.38984137195439	2.078825843603227	2.811980717795677	2.00967495112809	1.302318034212476	1.996550680666132	1.451967205482333	1.022417870598929	1.409567205152371	2.09453260458622	3.222499993567226	3.683753734294214	2.843347560748498	3.484230320221968	3.144899335205082	3.067664880203893	4.059015624138965	2.469064010963848	1.333287210017943	1.816498675176035	1.871188976904932	3.081396982626529	2.158075214438668	1.847619988439192	-0.9157420302231003	-3.172096221996526	-2.86586109681366	2.165627847796031	2.128410314913936	2.590515402550409	2.545305581234288	2.950913389422567	3.49183627884554	2.657859311414086	3.608210006498439	3.811372493142017	2.580407897999066	2.577750360666414	1.955072917842244	1.588487613326151	3.132754999528288	2.897037302166837	4.184330982196116	1.818450194602974	-0.7725687357335573	-0.8894812352414192	-0.6868797458523659	-1.349012326244292	-1.062109503274769	-1.944206741080279	0.9613531813927239	4.108925825531969	1.614073920927694	2.331545507484634	-2.930868794168646	-11.11792667931581	-8.419641352281815	-7.791911572931895	-6.522188541587639	0.9906899358400096	2.439332012189425	4.051124883485045	4.661778312410661	-1.721327776152748	-5.097816001449473	-8.263874220085427	-6.328852018180669	-1.515803167841796	1.557241458447152	-5.613445675264529	2.186022833909192	3.35683767498972	4.153253881192768	0.5848870116549278	1.914088590582196	1.169504908290492	2.043715323918832	2.0489258985167	1.997761608501833	2.301635191864534	-1.107730360259893	2.881827121716697	2.649530062205713	1.968626548716202	3.401825348641296	2.899906096951327	3.717486250577622	4.710878150510098	2.933988691061813	4.316656407112077	4.363950090459412	0.9734655568822745	1.205426256362216	-0.5589592905407699	-2.966743481614458	-2.202957267176998	1.819850627783353	5.128667144974997	5.174990402837921	3.629210751495521	3.156665960108285	7.198500929277316	17.37899180651698	12.89050830722886	4.788634067248267	-7.016207663062914	-8.207354881667925	-6.755633873513261	0.2286685481208224	-2.602230125864025	-5.498355362133907	-7.036612967040583	-7.553693536114679	-6.536330520136971	-7.015806462792625	-5.090668915908509	-1.965774445267698	5.06212939117313	10.43876831027137	5.116733485356235	-7.404381112974079	-19.3073332689512	-32.08929604393575	-13.48958731595576	-12.56972709806655	-18.1983068552629	-26.70341057690803	-11.78843645749362
1.932249273785601	1.000403555759021	1.318500567163937	1.772105345788304	1.077702460510636	1.793865341065612	1.648071794412317	0.5106308134077153	1.772117603210972	1.027763174210804	1.137503317575238	2.128850627442034	0.9374546808435298	1.371310777034523	2.106469072218943	0.7139759982101168	1.072354371067377	0.9643636066057297	0.4270779703783774	1.230672472710467	0.4915064997833269	0.6191583029738013	1.716771207406737	0.5106058955207118	0.8526419479564993	1.113049414254874	0.6470654186036882	1.789345972937326	1.162428894420373	0.3572615841071638	1.688416245582175	1.060811767385303	1.415569956810941	3.134587023474069	3.158550541793829	3.484266847869094	2.83842397454373	1.815406305968736	2.98612658586444	2.462827892930591	1.620480355171594	2.27324474649663	2.682591023980194	3.151494182523948	3.780964661626513	2.549849509989144	3.433353959523629	3.787065938951628	2.918688422367495	3.577004067671623	2.315637290892028	0.8346846921131146	1.604887500685891	1.53890192693143	2.87767189548731	2.293334078041426	1.557550131395828	-0.9276692771247781	-2.089577062242142	-1.211330968068069	2.976635453463814	2.496910503346498	2.604150652546878	3.613213692388172	3.699802083993745	4.04777851407357	2.935019410152336	3.748160290112537	4.095449320511534	2.846824705819472	2.455651846215233	2.028966085284083	1.622631536434483	2.691256927125096	2.410686771249402	3.32064091608936	1.725889829123389	-0.6491188277659603	-0.4672209220304921	0.29156757045007	-1.136261664015819	-0.6845645021896871	-1.366860804416092	1.291305528388193	4.805439934202923	2.061515107467358	2.567826962577783	-2.543097226325699	-10.77242409559972	-8.321853995607853	-8.246751673442759	-7.31775042929803	0.6446841097845208	1.912843545566147	3.364886788189779	3.822764338870456	-3.346125176516352	-6.137879229067266	-8.699441103982053	-7.268800753226742	-2.573971773172843	0.6140712048654677	-7.75084028290371	1.373387743199373	1.423991881139955	2.277409440058364	-1.384636516380851	-0.260329410015629	-0.2390155572500134	0.107819640517846	0.8585830746451393	0.7661843760195097	0.2105173022198414	-2.488559889877251	1.904114849370671	1.638010684837354	0.7458822231062641	2.478344981437431	1.562527734561854	2.438982741549353	4.075299981444687	2.444281615009231	3.879235805961798	4.180647121625043	1.364496164248294	1.22447844549788	-0.05463743368613905	-3.158106567587311	-2.796526755696277	0.8667665398095323	4.391464379059471	4.296897519500135	2.144689519795293	0.5069833495622333	6.171837952748774	15.73253103872412	11.03353256493597	3.142052543064665	-9.94130031957684	-9.049253754581741	-8.104302421580087	-0.3723794715872373	-3.322534073571433	-7.882102197137328	-8.705162396020341	-8.194643772944346	-8.07686304383833	-6.878938921145163	-6.233732454074243	-2.156287017715613	4.45074507311233	9.783889228784801	5.649433357672933	-8.733079332685747	-19.33445802442839	-30.96248926504472	-11.50388088845034	-11.80136734271832	-17.02870186108976	-26.46826699713984	-15.5463552617698
0.4965385213381523	-0.3493080855566859	0.1441113304399551	0.4185911635847788	-0.3089103351724134	0.6485832393493638	0.7603297245302656	-0.002735337041031016	0.9492270085991095	-0.1293245637366454	0.04749144491484003	1.26873575888817	-0.07885698327368118	-0.1043668457318745	0.257648022117337	-0.5974523432548722	0.258597263702768	-0.1908237794996239	-1.124244727572204	0.09654644867373463	-0.2709560305979721	-0.1443013559253359	0.7563601850924897	-0.08214505500814084	0.7824928334791821	1.288103982026087	0.8122741245836096	1.855773860035015	1.455719722473987	0.9583405020659939	2.276161685436819	1.304930308279381	1.401378505933053	2.951087236909871	3.220836942030473	2.963506602821553	1.735973297099008	0.5497169013394796	1.936125817308948	0.6553966990218214	0.1854893276545226	1.149012137440877	1.059789751697508	1.445024601317073	1.909449551583293	1.128664169936656	2.304067526682502	2.567331614942987	2.246098199993412	3.243139893260377	2.208956212610929	1.250864834862341	2.133805640369474	2.545534961555859	4.035083586919882	2.645652242637198	1.849774376129972	0.6027703158511031	-2.637286542681068	-1.922860198044191	1.60784879470134	1.13758808280636	1.195520280658457	1.081921058761282	1.714620458687023	2.296046725980887	1.221945269082653	2.450216636326786	2.157170513948813	1.974187233480734	2.315715078261974	1.367207902414293	1.235271926814448	2.147246968778518	2.468849067214933	4.423776751176774	2.317797531824453	-0.5446707002049607	-0.02863267292968885	0.7532488856525106	-0.8046222453267546	-0.2773873391083725	-1.974618133726381	0.9281723411743315	4.261241601868505	1.719635968306193	3.077744770214167	-2.174328921089227	-9.576014254980237	-7.489221561293107	-8.488731545214932	-7.180055517072333	0.7175035253410442	1.590820127571078	3.876899115852893	3.666928919617476	-4.026298786078542	-6.593322783298845	-8.301279427564168	-6.434840794423508	-1.633475341724989	1.340953381867848	-7.190361329826146	3.592216046591147	3.078373665518484	3.14897812617005	0.07005222680822953	1.168947408261829	1.583367740321137	1.789376555262152	1.966199980156489	1.587332456472268	0.9182878593899204	-2.998459124436749	1.532659404232845	1.859103570202933	0.2544968410245474	2.158600219449227	1.195219570482095	2.09024693394349	3.692820803411678	2.412022944994078	3.350281973365327	3.681503684978907	1.360505704109073	0.5178263277036876	0.003380722078645704	-3.670800189720694	-3.339345698354464	0.5632743568826299	3.909815127173715	4.627583124855164	2.041586007600017	-0.3599433160618446	5.553602585687031	15.89491886250971	11.13343716265604	2.828060627798777	-9.361191821321199	-9.94031421102386	-7.591356062405794	0.9952689461467799	-2.899420100614634	-7.290123764458485	-8.838450651338235	-8.192393350600923	-7.351666274508034	-6.630286807052244	-5.924787021337124	-2.752219772014087	5.994907755737586	10.57979333890285	9.061561453785316	-7.074299921880538	-15.48113752857375	-25.68475057905152	-7.150462405295457	-9.506658881575959	-12.71622391897063	-22.14490338711494	-13.87808850994634
-0.8883579506530168	-2.0040727439698	-1.567453799705845	-0.5542673882696363	-1.631466876688592	-1.509810618876827	-1.056238805787416	-1.697265066188265	-0.7221444376518775	-1.602704840458273	-2.006417219498644	-0.7043392609689363	-2.076762905690202	-2.171731226840393	-1.210191313661198	-1.891779040493248	-1.135414394344025	-1.135925615038332	-1.780804838624135	0.07541915720116776	-0.1481494642994221	-0.6485909330917821	0.4947560325817904	-0.01942569577249742	0.6166781142956097	0.9709348142807812	0.04807534777592082	1.15322609696068	1.037127757463622	-0.2830424563267115	0.3363813584389845	-0.5896692100313885	-0.5673291320881617	1.376842291071171	1.908394834875935	1.181237170277655	0.134901709464657	-1.013792384982708	0.7667561035957533	-0.1751832321335769	-0.4800383618653541	1.088692247583822	0.769126017370354	0.9087770433718561	1.861766591686546	1.187519164884861	2.217317526395846	2.447742386155369	2.111690328822988	3.138477201245223	2.709307152074871	1.462227209475031	1.824188489596963	2.095672450308712	3.502716293653293	1.799948287120742	0.7441477953739195	-1.432536102502581	-4.585497021992978	-1.856013622156979	-0.01225668897518517	-0.3467208204303915	-0.07284208372539069	0.02233583242013992	0.5676214043287473	0.8384249173498119	0.1405728805307263	2.061049769288047	1.75124628708727	1.505521877775209	2.092576524378273	1.325333892433491	1.52275794376601	2.227770844338693	2.748527639208305	4.355629351954349	1.97364563868382	-1.296842183813624	-0.4221869862105905	0.5476764461229777	-1.836471812351874	-1.129201105929496	-2.816514109162654	0.1910060367308688	3.05967282359029	0.1315558019916807	2.171599962456867	-3.008425082967733	-9.795730764349628	-8.879202663688829	-10.37011191002694	-8.784843652815425	-0.7350830417101406	0.000829577211789001	2.626796658160401	2.207602483519395	-3.763854021274483	-7.27496187450879	-9.047727316448345	-7.036579635000635	-3.208684133101087	0.5291876025510192	-5.625388086267549	4.255860971822358	0.8454980519893525	1.192826657498927	-1.099600610698417	-0.01093814520436354	0.3469396179013984	0.530766221465683	0.687346152423288	0.2618193685734695	-0.9192922860268027	-5.893923468115645	0.9634266403807032	1.064824344245153	0.2156523011833542	1.934365475244022	0.4149334873741282	1.659665553295554	3.477218085096411	2.193291694735535	3.26831369786737	2.970244127996466	1.657406287874437	-0.1641026740890084	-1.310357818791772	-4.411754053263621	-4.487091890866623	-1.153246378287122	2.273094943245269	2.019136057184596	-0.1115570272891091	-3.380765767643197	4.952016791888809	13.27027588256874	11.39130575222634	-0.2710900727463468	-11.31474391521397	-10.79477023724189	-9.965291866151347	1.265134939329528	-3.043127500844093	-9.103345142685384	-9.662823471030151	-11.48359548216581	-8.68761959815788	-8.672903728027677	-7.8120393590807	-4.71532477872438	2.249067968934696	6.856013524886976	8.575840351660872	-8.449980869266938	-16.97516877983435	-25.29128289662958	-9.302425094286718	-11.83600344898991	-13.70020490894876	-23.36671925974838	-16.91680386986422
-0.400399993727433	-1.380513856988046	-0.664396089693355	-1.160678677807709	-0.8325136555215522	-0.154025637670884	-1.459548998816899	-1.147570740337642	-0.1063450874339651	-0.9124645737583705	-0.5033262900001318	-0.6340549889205249	-1.325963222567907	-0.07201513317409081	-0.6763952841054106	-0.8772963052415435	0.1162636972146629	-0.5467356356359687	0.02237986081013332	0.3550554404425839	-0.2897732630383416	0.8734305186480924	0.7992351617813256	0.1563040152072972	1.171305936536783	0.5352356265084381	0.4898136824938319	0.8953398015744369	-0.1441108642402469	0.4381391618253474	0.5024157796137843	-0.523254532870169	0.316651085684498	1.401539754460373	3.773961223779452	3.223288008477539	0.2429592700025296	-0.3914659161082454	1.217384930580238	-0.1874079801116295	0.7843160178456401	1.015246017636628	0.395134510122034	1.36281244347515	0.5557389410341784	0.6708982215570813	1.633498479190621	0.4733564136288351	1.125506675684619	1.138263197640754	0.2911279968186591	0.3678411768278238	-0.5631749461915661	1.004715529978967	3.206656148997354	1.033479794723689	1.180759103106084	0.2623106272258156	-1.556394320716436	3.116778210184975	2.506881106210585	2.299751676090864	2.353621948076125	2.031996757274783	2.976330947789165	2.761417952726788	1.06200086641752	2.288987950366618	1.474286811458796	1.147606518999055	1.111054120651033	-0.2950370175922217	0.4121989670427411	0.5736273118875488	0.6479355200465307	2.102393270337416	0.22105111972337	-2.05432288535485	-0.7689289587067378	-0.1545767039572183	-2.548764992407541	-0.8722789470366479	-2.762229032416826	-0.0475704396560559	2.710884802860619	0.1360890514251878	2.661210193626175	-2.641170059743672	-9.031235406371479	-8.405115818044806	-9.934741215401118	-8.084440405970781	-0.2834933320182245	0.3427220659184513	2.345922509246975	1.551066649677978	-1.332171175510439	-7.427396299178326	-9.608050897997146	-6.698539996178397	-4.538284971630219	0.7219146315144371	-4.816538337737711	2.982620477461069	0.03957482042278571	-0.1871032822955385	-1.353436212036968	-0.03778333639706943	-0.5367323224766096	2.05825739613465	2.214744340499237	1.193833079579008	0.9460260252781154	-6.46921287063833	0.8962075863041719	3.092361715018114	1.087069712367793	2.766355279468144	1.97949652679381	2.204642957105989	3.989809813568399	2.550718238759146	3.479941078472848	3.864258938121793	1.959848839016104	-0.4368940926742653	-0.3244602622182811	-4.182769634286387	-3.788077783317249	-0.3779193358097928	2.72436457175445	3.711914482064685	0.9795079270406859	-2.976860142442547	4.265228242323928	14.4823532575524	11.95523381667522	1.487909465889516	-10.60019391514379	-10.47596869484869	-8.364484862315066	2.008403738039078	-0.9519768671057136	-8.057226552064776	-8.179292482356914	-8.86053697754096	-8.096207627969989	-7.061706723447287	-6.617193390483862	-4.152870853757122	2.689039216767469	5.606449238767937	8.977260364661561	-9.874309076824375	-16.29472978456488	-21.24025576955978	-8.794811303014512	-11.3236402973082	-12.53729494553045	-20.30617063328054	-17.89937151732761
-1.531823938285925	-1.486661216606308	-2.330002604153151	-1.16742300079477	-1.189858627896001	-1.942884789202026	-1.311243663147707	-1.924618700821611	-1.270420241511147	-0.5821780076450978	-2.324688124861495	-1.50686927993479	-1.406336743106522	-1.848576300717696	-0.7841457345948584	-1.26324786986811	-0.937600831122154	0.1162619909325713	-0.9112181854102346	-0.3143504608901821	0.5516542430659683	-0.2589871610341561	0.3466229194309562	-0.08468822973418355	-0.6108047219534001	0.6284832024978186	-0.3848548893720363	-0.6602243227346207	0.04147301136003989	-0.9753938573564938	-0.6097870945322938	-0.5129159016685207	-1.001960677298939	2.053484959733623	4.881659568398391	2.083621930587469	0.4059649664563949	-1.092650537833606	0.5702935854087627	0.4733408800366306	-0.6402535962320144	0.5739059423556228	0.6813904428458954	-0.1344386300302176	0.8826924198126562	0.3963323979692177	0.7070363437765081	1.244121731333507	-0.1163875606075635	0.301036599692452	0.9672545461005484	-0.2120673272679596	-0.05057427887163612	1.38256090517325	2.114170012425348	1.246379340472458	0.1817368282524967	-0.387651702114681	-1.232104795921714	0.105942019264603	0.40506663498536	-0.08853162019249794	-0.4499140740815619	1.152192044821732	0.360811281979295	-0.03258190161545826	0.04027965602654149	-0.4512042999981531	0.3846267892508877	0.8279778873090891	-0.43793441320895	0.3948214523559272	0.3831864414685242	-0.1986072710078588	2.435218920205671	2.556460505061978	0.8552208536466424	-0.5443934792024265	-0.8519801398413165	0.81574231634022	-2.025669749356439	-1.446077920841844	-1.421013514001288	0.1632946462534619	2.0934050924443	0.4915035000551597	1.099681109792755	-2.635998658330891	-7.535704224438632	-9.059489970030199	-9.579081725993319	-8.82890484695281	-0.4846244072523405	0.7117936758238557	1.49221963104128	2.61592961460201	-0.6305045945384791	-8.225382107963469	-8.825514707672028	-7.364634429203079	-4.302399616580715	1.099151852146861	-3.161236825138758	3.269121169949358	-2.034382242502716	-0.2083494843159315	-1.102609412417451	-0.8807514736881785	0.1970760202505062	1.208772809978655	0.5347835545931048	0.8248769957319837	-0.7875347708238678	-6.846235784423016	-0.6144592081163864	1.493440685250562	0.0689431680693815	0.06353703041986591	1.15216398141547	1.581243720567954	1.5484127796351	1.579272575222831	1.809580758573929	2.44898412705993	2.037517282862154	-2.246717869712484	-0.8953572350728791	-4.273821790975717	-6.066496393646048	-0.9514238044509966	0.3988053782989027	2.193071126111818	0.6751128442824665	-4.681188171552094	3.141759915478588	14.68984597192639	11.91927114645637	2.405596071498394	-7.753738002444152	-11.53021632738455	-7.016223944892545	2.325259958023707	-0.9212663526052438	-8.45429631680895	-9.376225090567686	-10.02862854852219	-9.919425224312135	-9.580158673854385	-8.528304655603506	-5.96358047152853	0.2348936840746774	4.251207087765351	8.13590026782731	-9.418743888242034	-15.46491762793858	-17.24814458341621	-10.24255558841605	-10.79895559600732	-11.53102087880711	-19.40597425543979	-18.38580385973228
-1.603403802313096	-0.7792334876526184	-1.584046179566485	-0.8374930104189389	-0.8697744993114611	-1.033224140869606	0.2368868323144397	-0.6219445597876074	-0.8679108919013743	0.3301447574674512	-0.8831114106437781	-0.1621361493589575	-0.4598051110056076	-1.278287375897207	-0.2915177625920933	-1.059154909553399	-1.329408153435907	-0.1448519651216884	-0.9476658207286164	-0.5814635780523076	0.1069013447024645	-0.9600461169343362	-0.432937396618172	-0.47663213483861	-1.036878851653228	0.09490847203255726	-0.7687477909382778	-1.261736382817617	-0.2948775451138772	-0.9266462604789467	-0.561003532857967	-0.1868938717782385	-0.9368306313685935	2.828128175155371	8.268846467517051	4.012036994789696	1.654066982767517	-0.1706083875264994	0.4072620628880941	0.6248147772696484	-0.3857293604683036	0.3111309550315582	0.3791255961668867	-0.4535260533270957	0.6598105360096724	0.1955090047533758	-0.06501463289555431	0.9813683646061691	0.3556259636807226	0.6379064954865044	1.22769075057613	-0.1450963520935602	0.3028722341596222	2.141385030290166	2.602415977378314	1.874552776925839	0.8370082348783399	0.6664089381379199	-3.285308319710339	0.2725985188446884	0.7868292660875795	-0.2110204066505048	0.03822979067786036	1.315503305076163	0.2226064240126107	0.2336214937824934	0.02376122765872424	-0.683856722604105	0.5065881151017493	-0.2204543312557234	-1.465533920485996	-0.5629260292614617	-0.8547631241217459	-1.274022852555845	1.098717186514023	0.999886572055857	-0.01909460122919882	-1.472087006291531	-0.6332346529468396	0.3869180328531456	-2.875945318608274	-1.412781142307495	-1.502127352064008	-0.4193596657926264	1.761186628216819	-0.1539211928331952	0.8228858474096796	-1.668507481771485	-7.331520395749749	-9.616739988565769	-10.58207035749729	-10.33963251233081	-1.654301935258673	-0.4324014798764892	0.3070494517078259	1.765092242792207	-0.2758728600156246	-7.740701764128289	-8.498971359041207	-6.543971197379733	-4.209908184516053	1.615815190752755	-1.0610811588665	3.000552852086003	-1.060470923075172	0.7008167720323399	-0.586219802990172	-0.4408592901743305	1.059137658269492	1.742321541194769	0.5160264659980385	0.2180352644666073	-1.499679000435663	-7.962330965837509	-2.357002811649181	-0.1556765035602439	-0.6345345530555733	-0.6137468624576741	0.33250332463831	0.9500170085041191	0.8403003052901568	1.453049932057411	1.970931963374824	2.655517622747311	2.440103230637078	-1.631994636770742	-0.1972183653870161	-3.988479641966023	-5.703809698592977	-0.4821991545534274	0.3317438246690472	2.026130443490274	-0.1693647258587134	-5.536221577226343	1.287356598333645	13.66921901546038	11.70878390921212	1.591394393867859	-4.745505879807979	-12.28537971766718	-7.189948092759096	1.99185139827955	-1.260840471842585	-8.133895350884359	-8.985259160842361	-9.694657258713278	-8.845906948880156	-9.141227580071472	-6.492188671680196	-3.434379179927419	0.8122752800784383	6.481058147167005	8.884765762737743	-8.221810460354163	-11.31688086677718	-13.03503440900272	-9.760740924159791	-10.30496130335223	-11.38749976634995	-18.58174504592466	-19.35780634240041
-1.247695063422498	-0.7039876999142507	-0.964109330991505	-1.350295900554102	-0.5874879277880609	-1.5261929304354	-1.141392141495771	-0.2274928186834586	-1.816362974635467	-1.373797550979361	-1.360658914878059	-1.899270057878766	-1.379177828530828	-2.110433720790979	-2.142861406726979	-0.9594473358285995	-1.977959152218546	-1.505750797762857	-0.5256304744939371	-1.100864878849279	-0.2232270862493806	-0.769252044296536	-1.722032060561332	-0.7335416802081909	-1.03895930876547	-1.171925338140682	-0.2799021135961084	-1.097013336238433	-0.493221931097878	0.03824020994125021	-0.5502769132240246	0.6362328218910989	0.7896320632628431	3.958628334763489	12.7946711926927	6.667291775091371	2.085722933407396	1.342189743663084	0.6536275085550187	0.7466283947717329	0.9033837521030819	0.4844280871022875	1.521184514023389	1.0173770859044	0.4974305910659496	1.300085745888964	0.4527684616634815	0.8240690946447558	1.729893113052412	0.8496594749949509	1.220855212847937	1.06613295107627	0.1350305542630394	2.898000699619843	1.911692019452403	1.071291703048246	1.41572996862692	0.3082176988832543	-0.6797382387310336	0.3556648961259725	0.7004583562932112	0.7121887717867139	0.3103178478247628	1.706078812485202	2.076866560733833	1.179902681322574	1.439553333813592	0.6764273901121669	1.371015990367596	1.72233808198871	-0.7006913066363722	-0.5952960854965568	0.237215126642468	-1.638358949310032	0.8619099592799557	0.5368693558114046	-1.777672695002366	-1.616494199320186	0.0388906013201904	-0.6247442757039607	-2.97077323191229	-2.060752318353252	-2.077791979452513	-0.06875866010364007	0.01122621613285446	-1.393745069840861	0.1203894622433381	-2.018780906884331	-5.485186549183027	-9.406463904345856	-10.87617464222694	-9.039975788638003	-1.676363952545444	0.1345972170265668	0.3969209888218757	1.819607776011253	0.5468005630750667	-9.15480244541709	-8.852726606270835	-6.253702794536139	-5.651480264547217	-0.4028628774515255	-1.729098267270956	-0.182021886468192	-3.561950710402925	-1.905062853915979	-2.970404918957911	-1.988877257060039	-0.1737938665107777	0.8596772234277523	0.9617597150629535	0.04642524526479974	-1.190216941972494	-5.38302021091431	-1.299691574045482	1.713711688505555	0.1553989859205558	0.1653714560065964	1.860531685356364	0.9650887533591685	0.9300679050063536	0.09515774934357069	1.310345551955379	1.772985511367324	1.474743217663672	-3.107807591594792	-1.801844473025085	-4.962258856447988	-6.836046063452841	-1.52972740437508	-0.9166117412485164	0.784139835849146	-1.384516748305714	-6.102700288582128	-0.5347688300319078	13.12599976859224	10.8898818057994	2.397707062492373	-2.784940039441381	-12.63392230013505	-6.124796201206891	1.508588006282935	-1.033167782465625	-6.490912589619484	-7.844076258539417	-9.213636896957269	-9.320401168599119	-9.069610791470723	-6.10890932269217	-3.113000552452831	-0.865572468947903	6.763110349272438	6.485690712382166	-9.95025044402405	-10.4536420944346	-12.55217071720062	-9.168561634941852	-9.973481312109698	-11.27060338827278	-16.41394609079407	-18.74236384029518
-2.971480123205083	-2.158475918427939	-3.408602922145747	-3.277806675394913	-2.398836823975216	-3.205621198864264	-2.671396483804529	-2.16583987103445	-2.562672615950078	-0.7761665267416902	-1.15037820380735	-1.482988369137274	-0.8792878170606855	-1.390592266396652	-0.7425045412592226	0.1309967491079078	-1.066447326777052	0.07781455964800443	0.2832605441801661	-0.9560108712037163	-0.153063702865893	-0.5626473235261074	-0.453596741454021	0.2004385927848489	-1.195609475943229	-1.319948710027575	-0.7541143028765873	-1.491038120109124	-0.8158443082370468	-1.05866816956609	-1.50338038634959	-0.6451256552584255	-1.487156638080705	3.860491535775054	16.26766416902342	8.882248728209106	2.849596222376704	-0.3421009361743472	-0.8890548851202311	0.1682522940482158	-0.7218964101841721	-0.7790718903170273	0.4073663655026394	-0.4320581534350367	-0.1663434600407072	0.2368177180135262	-0.5524651201817505	0.7823666152141868	0.5475700381598472	-0.2894837610463128	0.4471102115776375	-0.2857496494821135	-0.779374431448332	2.114610717541154	1.708773403269788	1.381545167291961	0.9919984451903474	0.6045911452674773	-0.690952001269352	0.8826190327604309	1.269363588079614	1.385823674565927	0.8950537583095866	1.553084216197476	1.751785986187997	1.289845198625926	1.750522565995425	0.7361285621436764	1.104981898168717	1.973802611660176	-0.006776381525469333	0.08593011845664478	1.193807780365432	-0.5846580963675478	1.964732790384232	1.475032030047714	-0.3971233599222614	-0.05132313761282603	1.92451070429297	-0.3345578008168104	-2.894525613243786	-1.394087772606326	-1.940761524180061	-0.4739565476695589	-1.013446343124542	-1.428599711842935	-1.520105236205154	-2.312942669176437	-5.968807154505384	-9.28688064424091	-11.38155463996191	-10.730603937968	-1.374411125628058	-0.5649512709519513	1.27027451037975	1.40120967372718	1.322763961236205	-6.68432253771357	-9.277087904865994	-4.171444341528968	-5.760719156240157	0.5944868189142198	-0.2093409030371731	-1.15441129022679	-1.911206112334412	-1.824627113797533	-1.901185837099547	-0.5558088393031539	-1.206650618700905	1.493369351277352	2.573127578765707	-0.4508418515413268	-0.2182441243237463	-5.427272881750696	-1.311809759523385	2.312807176597062	-0.7483876292785681	0.4338571164680616	1.437466258449604	0.8129965357834408	1.629968284612232	-1.111358819978477	1.20144136822978	2.572132206416654	1.147028578719983	-2.200924932199996	-1.161924888290969	-5.061554942764587	-5.648623292714319	-1.484860982139253	-0.3993930232315961	1.343699467585793	-2.955614602868536	-5.226662037054666	-1.206111286538544	13.83282938382513	12.15916368300918	4.730304702317426	-0.1761370247156719	-10.94194845006359	-3.824902125695189	3.542617317243412	0.2471128876386501	-3.317256063315654	-5.420614057783723	-8.656029763263405	-8.731499956877087	-8.254558094734648	-5.924181000755652	-1.506891067927427	-1.190291765344455	6.439846965156448	6.187135992234971	-9.19730994558472	-10.19629696626703	-11.77151526143984	-8.447288643101274	-10.09456879864274	-11.22463618113511	-15.45366274599587	-17.549404366619
-3.314815340002724	-3.068777394031486	-2.627552384946966	-3.258965175957428	-2.525924921545766	-2.53025478358154	-2.889673180481395	-1.645023135251449	-2.406860547970609	-2.416778836929325	-1.143622782578404	-2.001798399717245	-2.084805105806481	-1.9066179416061	-2.536716747025594	-1.240917050763301	-1.878944410022314	-2.302474606154192	-1.004519450206544	-1.437463364455198	-1.245076917741244	-0.9920352798571912	-1.997511164391653	-1.423204451801439	-1.213799919468102	-2.365927283286737	-1.446835340567986	-1.733881458772203	-1.939281471131835	-1.570633756112557	-2.547888139531096	-1.954013008713446	-1.022861205658728	5.399017650715223	19.20871193530229	9.61952653479625	3.499848537316211	-0.2935620917860433	-1.327265642129987	-0.1939701298065302	-0.4747771789161561	-0.66457654775013	0.4381933991453479	-0.3675462533608425	-0.05987898261400915	1.244165155603696	-0.1402427746834292	0.6730269307752224	0.7249637943561993	-0.2731306296152525	0.1950151040693981	-0.5965839461634914	-1.668218858228101	1.517279826003914	0.3821071850700264	-0.136840248751696	-0.5655551928348359	-0.7495449894754529	-2.678384321567137	-1.291559704790416	-0.8383203065363887	-0.5841264043694991	-0.9017053194593245	-0.4012945690180914	-0.6155199532925053	-0.6423101798159223	-0.2668485380434049	-1.68551661327183	-1.248619535439275	-0.4566845842293787	-2.391242361397872	-2.260199851765947	-1.334355211498178	-2.838939802739333	0.05841123721711483	-0.7833753367849567	-2.181370147122379	-1.247606038533149	1.363918525730469	-0.8238765240366774	-3.662367087975099	-1.708563931995741	-1.119907757672536	0.05913591548642216	-1.682134489004511	-2.111461743159225	-2.417421929297234	-1.96422837406908	-4.612644174592106	-9.586668031239242	-11.73316971810118	-11.33051674770218	-2.787685173119826	-1.993496031788482	-1.003537322791999	0.08421161312321601	-0.7337076731971592	-8.919339577474375	-10.90476722373842	-5.544359788938891	-6.820227494006531	-1.50520825056833	-1.436184376452047	-2.457753671754972	-2.41577724770741	-1.973487672803458	-2.503403516448088	-0.5809790344749217	-1.24702779262293	0.9695375062865423	3.103956931300672	-1.185346874419338	-0.5166277452433405	-4.754505410681304	-1.977487655057985	0.9900660204598353	-1.941081658303801	-0.7668092737017105	0.2099027790900436	0.2616204438538716	0.8522532522827078	-2.237931434638313	0.8636929563429021	1.882748569626983	0.3786277762242207	-2.682269174486692	-2.064785633137262	-5.139099723836352	-6.041828825444782	-2.575948077917928	-1.312380071846746	-0.4772042778156447	-5.34529289092734	-6.257540605782197	-3.366307194457249	11.8433047372805	10.57017281934804	3.73360574858043	-1.230734760295036	-11.66505475528561	-5.808239592149675	1.26551267353102	-1.876628142677646	-3.646307587522642	-7.729647075272851	-10.80175360617409	-10.42069250550662	-9.913036105488345	-7.100811743308441	-1.64578140676349	-3.224747867800488	5.995600520214339	3.960995174531263	-9.905771074613767	-11.01716774205829	-11.69557171573251	-9.806606277842093	-11.58102025373614	-11.67250682518079	-15.61415519245907	-18.22758289033845
-3.265545431033843	-3.056415352230033	-3.549521323961017	-2.46755809417914	-3.002629857752254	-2.42836333673813	-1.721752063046097	-2.719816779306711	-1.909851974799267	-1.640981414469707	-2.278309465512848	-1.534844699677024	-2.408284493607198	-2.446360275034067	-1.626595965005663	-2.764169364965937	-2.684933131570688	-1.57754314751628	-1.99256896319298	-1.302196181558429	-1.490896271326619	-2.140862284232071	-0.4843230997350929	-1.306329801393531	-1.515990213021041	-0.8167858023857661	-1.434355298181799	-0.6385799033741932	-0.5218545064067257	-1.639101401875223	-0.3280359139509983	-0.003642115386810474	-0.2988146691513975	9.218775387211963	22.78973064721845	13.36114051331469	6.007258784462465	0.4232354829155156	-0.00952307461534474	-0.7885851683320197	-0.01621766639300404	-0.7599354885051071	-0.8466112832597901	0.4688849899075649	-0.5270169428169993	0.1872617380684005	0.4454429267907472	-0.3826410302619934	0.04470632826701149	-0.3058783115184269	-0.8134628834463911	0.2119094831991788	-1.496572965328824	0.2060651715667063	1.418826481075939	-0.2052828805228728	0.9544672836516384	0.174061398825188	-3.091091896446414	0.5465277373566551	-0.5399283660551646	0.006487562895927113	-0.0614306949114507	-0.660819273087327	0.1509404191206158	0.06528353423436783	-0.9390372630005004	-0.4390105437100829	-0.7590903380682903	-0.2932789874571426	-1.112206757309878	-2.592034987495026	-0.8627664756534159	-1.770089340778441	-0.1458230993989673	0.6268191301228399	-0.1651289554206414	0.966369902118231	3.955371147960022	-0.2299694636465119	-2.512016603913708	0.2147882711387865	-0.2611570826481966	1.252672951197155	-2.710064879530591	-2.641332563216338	-3.406528274414086	-3.025959156817862	-3.706078343898753	-10.51256775095112	-11.99973910959807	-12.02241337764531	-3.421806742011313	-1.78001824393732	-0.8230277148318237	0.4103344113163985	-0.1755564674726884	-7.693332429834982	-9.860856832334548	-3.903573043387269	-5.954115087191212	-0.9444879146558378	-0.8514030979172276	-2.76254538431408	-1.8970597981438	-1.532431176058026	-1.918091524557894	-0.4584554007522001	-1.246599981866439	2.359246476869203	3.082109544087416	-0.08749413345231005	-1.105211258282225	-3.484071942896662	0.1910496481184509	1.016578846470566	-0.2418836447566264	-0.7074160237937122	0.2620336415950533	1.984435524058881	0.8865658918514328	-1.197009035394785	2.618391331927114	3.091407866485497	3.321716260944413	-1.468242047870035	-0.4166410387967971	-2.183955331508059	-5.642642870264353	-1.124232328635571	-0.3829348440440299	-2.059733205775501	-5.180215874108171	-6.751142447431675	-5.330111596483903	11.13696353111345	11.01194995962624	3.710784764640039	0.9837423607000346	-10.23635957891406	-4.530577226966443	1.609103442877313	-1.659849556309837	-0.5344869138734794	-6.718645722176234	-9.583460279312931	-8.302550793996261	-8.903219336294796	-4.637061737800877	0.2495809102545081	-3.771413212093648	9.71791726229003	7.468016847500166	-9.399834695211894	-8.858760417059102	-8.419595665977113	-9.305988337804138	-9.776372844265325	-10.45549346961775	-14.32741728042629	-15.48542657771372
-2.216174472023113	-2.729985509607104	-2.084337673722757	-2.730146288150081	-2.356520933801676	-1.98566372107166	-2.931387728788422	-2.245206098462859	-2.739068400205497	-3.354474930804599	-2.228761407537149	-2.526065877969813	-3.042760520018192	-2.558622801761658	-3.569256373308917	-2.873582319528168	-2.347632883844653	-2.790144829817109	-1.502968929583631	-1.767658658461187	-2.040156008542226	-1.011881548768542	-1.189033693976626	-0.7538380669539038	0.1690552869431485	-0.870103946960171	-0.4108578036507424	-0.4556346033659793	-1.160796057854441	-0.1564853902759751	-0.8682177035161658	-1.282202133071223	-0.2144440764429874	10.50273964593566	24.51478908849253	13.50503891133008	9.427901311190226	0.7055484183556473	-1.337886710807879	-1.741732477760706	-2.310330082219252	-0.9681387305552107	-1.167416858056413	-1.806906259425432	-1.08820639205851	-0.9228081670655683	-0.4462259164924944	0.593683309740527	-0.5405598899972119	0.2541309572970931	0.528267886325466	-0.6144131362552798	-0.5499084492903421	0.958490749968405	1.342324758599034	0.7934806550342728	-0.5388507319889868	-0.5049845243343043	-2.81242138731227	-0.8492232953035455	0.07356298636227621	-0.8179279919172586	-0.9378666268498819	-0.3844886797619438	-1.619425779553922	-0.1407714853978632	0.1615206611875237	-0.6965341701129546	0.323582664189189	0.1859374771931925	-0.850802137159917	-0.3983734439409545	-0.3388782950753466	-1.116540887256406	1.229059067642766	0.1906787323969183	0.6372053800730555	1.031101200029525	3.439185721811327	-0.06803026712441351	-4.547968962366213	-0.9416588959929868	-1.428032616123119	0.09642518284886137	-3.108488655558403	-3.963043448767166	-3.11258161274236	-3.093917883004906	-2.226196096089097	-9.84191288543866	-11.30631429755704	-9.187665867181067	-2.820539887797167	-0.5230376292106484	-1.042319268983192	2.294065510734754	1.294666455328297	-8.596290466202618	-8.565268879581936	-3.064250287138066	-5.78993991225866	-1.695524824309587	-1.492931724171058	-3.220097040887595	-2.731564135739063	-1.532836033400827	-2.811232387534574	-2.563454349736958	-1.94029228083491	-0.7271295672649103	3.448926113164589	-2.23355586206344	-1.573872921544535	-2.263578213576693	-0.8949178364141517	1.112442344614237	-1.25124580898455	-0.5963680860986642	0.6468976479870889	0.6218944666547941	0.2537537280770721	-2.399951954714652	0.7328764921012407	1.821691144452416	1.042943451236169	-2.632031089408883	-1.503341954871757	-4.465851442559824	-6.933364851172428	-2.151212753418577	-1.991284063850117	-3.674634839243026	-8.028999601574014	-7.214661538321934	-5.840613067113054	12.09557302355006	8.057970146004891	5.412850195777764	1.690573218027112	-10.23206142785148	-3.372799612498738	-0.286325794938648	-1.488294348393765	-0.4537041988978672	-7.87000055194153	-9.453326935392624	-10.06539973930921	-8.879000247271279	-5.217203328310688	0.9846416118591605	-3.075520732470068	10.8950107709677	7.18537212694082	-8.943578669295221	-9.93625923569698	-9.432213757346744	-10.37960449096158	-11.47223982948526	-11.00363044475966	-14.35269451673798	-15.69622445197979
-3.516846219850322	-2.928395210819872	-2.425577691997887	-3.530362446506388	-2.690777524451278	-2.673300085880101	-3.281073236170414	-2.500107496034616	-3.153915076833073	-3.116578175475752	-2.419423086389315	-3.306426315159797	-3.097720087222797	-2.883644723572615	-3.831076900313747	-3.245810041260029	-3.578949191775791	-4.034148376705843	-2.71780831966953	-3.732305519926513	-3.887415212055657	-3.026834972300549	-3.494782484010784	-2.801916391563964	-2.57477319728946	-3.305305416156671	-2.070539296180641	-2.206862297172165	-2.454653532248813	-1.523096253691392	-2.35692587209769	-2.006303762688958	-1.039909999331712	11.80160892866638	25.08425930996555	16.43129181651966	12.70263165734127	2.169643053906611	-0.7155715312787834	-2.177623133866291	-1.535712152407086	-1.586414779872712	-2.21741435609465	-0.9189625975270701	-1.753781227889931	-1.898295783428239	-1.010458998252716	-1.198682412690232	-0.8916518452742821	-0.8088567608756421	-1.719192792905687	-1.042384141015418	-1.968851221010709	-1.160659156408656	-0.0964386880928032	-1.480992639178567	-0.9351244145548208	-1.222214858723419	-3.589745641563468	-1.018047783962629	-1.193768352619827	-1.890368923516235	-1.012029244288897	-2.208574618590092	-2.163379757585062	-0.8117955491863995	-2.648493816615655	-1.631578749804703	-0.9791790090830546	-1.133064268144835	-1.205885925914345	-3.275378431840409	-2.73448808573653	-1.834297059406481	-1.888034444926461	-1.417970678939128	-0.4553668390744861	-0.2197354835122951	2.730972430275642	-3.490179305425499	-5.004870033955513	-1.215811741601328	-2.814513825918539	0.3029950077336707	-5.871034555067581	-2.736459938709004	-5.627950629965426	-3.414486430199759	-2.957883513698334	-10.11087044887608	-10.66618640670458	-11.06468056306676	-3.284891720777068	-2.981643058100417	-2.797159499509462	-0.2819501153060173	-2.520915501243508	-10.50525459286405	-11.20615032509318	-4.495269385878146	-7.547082611596579	-4.045339574941636	-2.36704713327822	-4.386171343401884	-0.8411951596360723	-0.9191046889825429	-1.223637525349886	-0.3746551097601696	-1.296293238904582	0.7121531045077063	3.990628950100927	-1.178488258716015	-0.5302000788610712	-2.28192342461557	0.2953720378197886	0.869925561397622	-2.102257127194434	-0.6102428965059516	-0.6099006756751351	0.2774113108175698	0.379943535558823	-3.649472983175883	1.523340156391441	1.829150506690667	0.814892020229081	-1.41622379667524	-1.678426189232368	-3.618565685940439	-5.635362470394057	-2.576460025021561	-1.231018568279978	-5.816701588155411	-10.20274205208398	-6.811449406409565	-7.963132870233039	10.26630982272991	8.672551085345731	5.726884375618056	2.418638092841775	-9.336940377166229	-2.932200691260732	0.3424491682346797	-2.20797701200263	-0.3124195450627667	-7.522068681289511	-9.412853322273349	-9.724371171689654	-8.765989952513337	-6.141409436713275	0.7748577189445314	-3.212803908543265	8.75010752048297	4.136622300535009	-10.15501388549433	-9.588227102055043	-10.30727774918932	-9.487169933459654	-11.06713737793439	-11.76807964809359	-12.73846746195591	-14.83884531799799
-3.712723211439425	-3.184106737292041	-4.416810003642695	-4.531326252132885	-3.509832029227709	-4.379730961530868	-3.765757486426082	-3.36226319726984	-4.054462327313331	-2.821278761233089	-3.358263668922973	-3.470133775195109	-2.578974900943649	-3.769803782036433	-3.485416303010879	-2.871372141322126	-4.153631663037913	-3.568185332489975	-3.493476310414962	-4.18474979123539	-2.992234068914286	-3.892557287246063	-4.295754505277728	-3.480720660271345	-3.95055488711796	-3.38945772073339	-2.950162685984878	-3.812785468288666	-2.625891314669616	-2.753832350041648	-3.311455111346731	-2.382106185299563	-2.516095737310934	11.48962340581124	25.32193762853808	17.08616680900559	16.16923279975549	4.581847614372691	-0.7117457304887012	-1.256962937823801	-1.207012551716161	-1.849803243723727	-1.223148420301868	-1.516577456711502	-1.648729198820774	-0.8215738924127436	-2.114449965622953	-1.733376319046329	-1.560520021404045	-2.986936033776601	-2.595375481998644	-2.682649368514831	-4.564115224427496	-2.580355953835578	-2.574084900575826	-2.859862939161303	-1.859209451712786	-2.595008837405658	-2.70328272411507	-1.265227264949772	-2.248626317031267	-1.210796217866118	-0.7422844129587247	-1.983164958016687	-0.8166558531631836	-0.6029131154552942	-1.171427435305986	-0.1952947061436134	-1.53682544175831	-0.8354913545035743	-1.450606571906746	-4.484333441190756	-3.585212778927371	-3.882993107946277	-3.556541386111121	-1.747379301572664	-2.669682726004112	-0.7890729452290088	1.260177698841972	-5.225546323116305	-4.961115090857675	-2.723248242424233	-2.65908323119902	-0.3351067653331938	-6.540683078341999	-2.251401737079277	-5.138337236110146	-3.801915509668333	-3.250464748761715	-10.2234781361301	-10.84973919912841	-11.17469954533431	-4.032984018806928	-3.524832688569632	-1.389426863508334	-1.047050963138645	-3.262082875643955	-10.24039471214087	-11.34562825034118	-2.318397557887465	-8.388605207350338	-4.39913649777759	-3.580190545092364	-3.928629055315014	-0.397118265443396	-0.5048937303349703	0.2390345887329204	-1.740753660205428	-1.03814489383285	-0.3235148786932314	3.87173162755812	-0.5192821302041466	-1.314650310907837	0.1481106661667582	0.1689956204911596	0.3966940137734127	-0.8107040334509747	-1.628703849722569	-0.571050257983643	0.5472555605254001	-1.346660948662475	-2.820758556596957	0.3536048792054771	0.9772778319816098	0.6059446854835642	-3.801492231567408	-2.786598208678697	-3.602582084371988	-7.234574667886591	-2.32957409582923	-2.482170913177015	-7.782204218946617	-10.80873647200133	-9.2462275922353	-8.722898814714199	9.974504415791216	6.77258736436761	4.716177238958835	3.025914075014498	-9.184832763587565	-2.518030854018662	-1.885819865764006	-4.25775914466999	-1.48211546405696	-10.62814866634926	-10.59868813174239	-10.84758709090488	-10.9744099781451	-6.854433166638728	-1.790974754714853	-3.835980344453674	6.804177768078262	2.714521645681543	-12.31290632967989	-10.3640715218196	-11.52776247181328	-10.61422675916128	-11.08250240139682	-12.55857108125565	-13.07934058106775	-14.4174374697559
-3.111686523287972	-4.100354688648395	-3.673611776774806	-4.728789481760714	-4.158134121604917	-3.373430704886005	-4.500985371060096	-3.998573116633452	-4.098225398373415	-4.38742968598126	-3.42023181708737	-4.17392372261429	-4.492684216930002	-3.711084111320133	-4.365998911501265	-3.933924036858116	-3.973318549314854	-4.289004886710927	-2.64307466976129	-2.955192136541427	-3.657855323672038	-2.655696049752805	-2.884150403345529	-2.910380208802962	-2.35086921204288	-3.51005136948379	-2.714399519221161	-2.165846085097655	-3.01906034502008	-2.358433598197507	-2.707796509218497	-3.097969703931085	-1.907648845576659	10.59693126131083	23.73724084350783	19.99617929419378	19.38651756929107	5.046122883954013	-0.2224401595649397	-1.801516587335755	-1.762960961892304	-0.732550660806055	-1.565374681642425	-0.617812209438398	-0.3312806311557779	-1.456591259491233	-0.4420300473307179	-0.3615683770497071	-0.9627401789966825	-0.8836839008915831	-1.978407778168958	-1.254895706316802	-1.769554999155844	-2.189201707648863	-0.9696459080989825	-1.050780664102376	-1.570576312901267	-1.013972605006302	-2.162173838453555	-0.9444514457809419	-0.1080377038172173	-1.803325982240949	-1.143344687269064	-1.382201399075029	-1.736270381858276	-0.0576142711393004	-1.491612869663641	-1.082768036681045	-0.3056463210095899	-0.7766415312112258	-0.9376162427370218	-2.576635618440378	-3.055100774965013	-1.884610548249157	-1.802774773511146	-1.550618803015595	-1.182134731726364	-0.1553161547856234	2.41821713999866	-4.596045626723708	-5.740716229263171	-2.442892283138917	-4.212612769802263	-1.461815706213656	-8.201354133341738	-2.930006780186204	-5.139784050867092	-3.646254674136799	-3.792168188520236	-9.576504311975896	-11.77921054042008	-12.20475998935922	-6.048915980012225	-4.34827516777591	-1.503679292797187	-2.616844031609617	-5.989675236164658	-11.03353204683822	-11.2899404489965	-1.983597787680765	-7.251739260658951	-4.372340042659289	-2.534320511522992	-3.620425793923914	2.813813771797641	1.113898126949607	2.277929713892945	-1.101337928234443	-1.186384607131686	-0.8574922716918536	2.736234932193611	-0.727093245008291	-1.545031973457299	-0.7241550480318892	-1.357619446332365	0.60954464999827	-1.894059031702454	-2.452256979125195	-0.5293095284976062	-0.06173649491074684	-1.952774179935432	-3.043002378217125	-0.1924384536050638	0.5317665801094336	0.07644348731332684	-3.871945360063137	-2.40355558824308	-2.808994903075927	-6.924637808043826	-2.472349599382369	-2.963404884715146	-8.168268708706137	-11.28066440870452	-10.04653948435225	-10.91087252039097	7.969345635090122	5.298427082027956	5.3238560095308	2.864988115350798	-5.5574258955819	-1.560640668187261	-1.685731153897223	-4.116989162128448	-2.90668155887397	-9.643036810397234	-10.58756499654646	-11.47085696917406	-10.36146696020842	-9.096286760891417	-3.643015317803474	-5.046128660893601	6.345717136463691	1.595188499778033	-12.30117383873608	-11.30481954920037	-11.68388092207601	-10.67343117838914	-11.49288997456392	-12.09849784675885	-12.19825845457012	-13.83806562966402
-3.413253215327586	-3.924013799763543	-3.196717415590456	-4.2831824858049	-3.728378861346755	-3.301900530188959	-4.063151337466479	-3.280205684494604	-3.816681146935707	-4.337778177886776	-3.423571527038348	-4.169282876421221	-4.257177007910059	-4.03576061446438	-5.005562457967471	-4.217193020205741	-4.401418819560149	-4.732183184316909	-3.66988063500412	-3.933394893579134	-4.081419976490906	-3.100086701060491	-3.602480844140246	-3.668329460342193	-2.897328899763124	-3.458860994719771	-2.309563272520791	-2.052322492656685	-2.936114144066096	-1.838463335559709	-2.092847968586057	-2.647939222945752	-1.947855582303191	9.853935397740315	23.52498409331974	21.47714657525421	21.37077510419044	5.649889488303415	-0.8800682433522979	-2.713190373845919	-2.552661164026631	-1.904886298294969	-2.422496407835752	-1.656513404110001	-1.923059871775195	-2.441550066980426	-1.466026643211535	-1.680882531260977	-1.671421681991433	-1.537560671390111	-2.464518399055123	-1.809560643969462	-2.25753240788913	-2.924442272461874	-1.138559740453729	-2.001538236004308	-2.555916180361692	-1.527799101816299	-2.217985358903888	-1.589574870401293	-1.147680842415866	-2.694449336645221	-1.498692413104436	-1.511655542674589	-2.08114854595442	-0.3887639079639484	-1.439924707950695	-0.5762946121431014	0.08809730159237006	-0.9257739727954686	-0.5820370007993461	-1.938198888548186	-2.375938729220479	-1.372044412413061	-1.460551548876538	-1.004718690120171	-1.183114104887864	0.2671011880577225	2.910164871127563	-5.521854295482171	-6.060673823611296	-2.829982764570332	-4.780249626396426	-1.006245128896808	-9.448946435656126	-1.838319697146517	-4.654590532985367	-1.949002189263865	-1.609969155500721	-7.690137160645008	-9.715260629683598	-10.71371699454062	-6.891784540789786	-3.426616989964714	-1.880552321071264	-2.897770905368816	-8.557170719210944	-12.09355426957109	-11.04716046379599	-3.454121893678575	-5.519340202877629	-5.477364732294518	-2.263947807590512	-5.900457724196031	2.711854203728308	1.630062248281774	2.15543801491026	-1.299876464367571	-3.452868752718359	-1.681087052257226	0.9160464005290123	-2.669247166049672	-1.603110842534761	-2.762083494603075	-1.395864214840458	-0.2298524758700751	-2.703905146599936	-1.464896812519783	-1.413875519654766	0.0433849975981957	-1.438076003086735	-3.446101242542909	0.3964757373441898	0.05330308257725846	-1.297858260198382	-3.159822128240421	-3.438386831453727	-3.285184620196333	-6.239662855390407	-4.02957360266214	-3.270659694719598	-9.00373617950163	-14.29090408077445	-10.34225419230597	-12.30541868044133	6.22251801099037	4.866865484637856	4.718334933236292	3.954241451377356	-2.948749803823603	-1.668676483566514	-0.6881477399376763	-5.506341522207322	-2.112601921990745	-10.5216356482515	-11.0017546477668	-9.506368880077616	-9.839344235576391	-7.454465390278074	-6.028035666458436	-2.618546402655056	6.389141263234706	1.532079902303622	-12.49535446163895	-10.42044146594003	-9.870656695750313	-11.13082264406171	-10.42427178824619	-10.99083219484987	-12.24238622080611	-11.40625073517617
-4.317099948239729	-4.340715882109862	-5.500588599246385	-5.21501642301746	-4.271240174726245	-5.463316307552986	-5.010184058430923	-5.044217693118753	-5.58466209483413	-4.691353195822785	-5.224417991035807	-5.146040638143404	-3.702175664315064	-4.781810216746862	-4.555700178732423	-4.103854938114864	-5.164219068867169	-3.793491691455529	-3.952669669759871	-5.029158311923311	-4.046891466324496	-4.657504202666132	-4.484678834836814	-3.77520164255634	-4.473174898655088	-3.836017469521721	-3.562730609531627	-4.214309186179435	-2.964980633292271	-3.412580611594876	-3.519608987331594	-2.883503237985906	-3.676614042230312	9.363521237444047	23.76578547313079	22.25081847187289	23.1219285684781	8.409911584880547	-1.632459272120286	-2.239571970369298	-2.231882373389453	-2.152170594373956	-0.9824335951839203	-1.843080080379423	-2.28894714390799	-1.556756689896247	-2.453288375279499	-1.398862005641149	-0.9483084560208681	-2.352786734197025	-1.47943741821382	-1.709143608225531	-2.542012644513761	-1.858909270633148	-1.820043466052994	-1.932625272872656	-1.42795026146473	-2.199616226010676	-1.427926137637542	-1.021204928516454	-1.822557533359713	-1.333535960493009	-1.788627671883432	-1.966701547085222	-0.5204912560188859	-0.6637381473733512	-0.8605822607696609	-0.3058955867725217	-1.632657989001473	-1.059807222188738	-1.911006060191085	-4.952827529210253	-3.599624865064698	-3.95626513964794	-3.945596408061647	-2.275574661089195	-3.967572930866936	1.289381147835002	1.395990661954329	-5.374258237022104	-4.291026007654409	-2.995299067195674	-2.18408783716427	-0.2678663461890665	-7.292220553510788	-0.6181866328308843	-2.350601380142734	-0.451851112514305	-1.549047135720457	-4.422804360772034	-6.46081071915205	-9.380731326101341	-7.109280342529701	-5.221850435444139	-0.9480203109224021	-3.996630491277301	-11.178805012976	-12.3399347047382	-11.86250960980442	-3.330351769265917	-3.66075255423516	-3.694437066634464	-1.945409514384892	-5.249652810096222	5.228134043519958	4.186938452536879	5.11840328719245	0.109118239221516	-2.719021630444786	-1.630459571836127	-0.3177126916975794	-1.783320713674811	-1.797737353358798	-2.668492882713281	-1.705061027849524	-1.001385576084203	-3.116884811080581	-2.585638384435924	-2.271652208181649	-0.4057191485146632	-2.5607136148476	-3.264516698886837	-0.2103051380108809	-1.897801564099836	-2.336907124029267	-3.512220755701719	-4.298072421826191	-3.246508472397181	-6.618434571485295	-4.507384040418174	-3.572114634568607	-9.943783205070531	-14.61663667062908	-11.76785280977174	-13.88288755202711	0.7873590346348465	3.467338456828202	4.088450959576221	2.113599184018767	-2.496421056622466	-2.336171585336388	-2.301856618946431	-7.03902407067585	-4.385469500229874	-11.1001171505377	-12.26067814933367	-10.94054433884207	-9.210992223642734	-9.679555259844392	-7.361865017470564	-3.093670273236967	6.195325981734186	-2.741988171075946	-13.13810062264633	-9.906608883597301	-11.03848027280674	-10.89244278528167	-10.62691418242252	-12.22339263998651	-12.18874361444455	-12.44375437454346
-4.242221917752659	-5.618494550659761	-5.893889295884492	-4.811159989166981	-5.27926321824566	-4.949269386358765	-4.476531687448414	-5.134301318476446	-4.006710193673825	-4.176516176295081	-4.33397927277565	-3.071701786177982	-3.763662729624457	-4.034709426107383	-3.489250139137766	-4.124609974772511	-3.629124805586571	-3.013242896940937	-3.915577715772088	-3.131951067002774	-3.334803421609422	-3.236289842628139	-2.211861696185224	-3.44199828350429	-3.278873788569399	-2.781380697559143	-3.679455258504731	-3.188663459834515	-3.597935447241525	-4.114088260110748	-1.90069824394277	-3.066960494276145	-2.887820414221551	8.563016062662882	23.34521002072643	23.75287750126336	24.47127693641801	8.036398636808144	-1.507654746945491	-2.280653381362526	-3.487017008410476	-1.945170981155115	-1.46375535579773	-2.685595772910347	-1.374944423792385	-2.078336787602439	-2.694724893008697	-1.508958917964264	-2.488369166427674	-1.735573311091912	-1.3622763404137	-2.928299458005768	-2.635849346374698	-3.073342047601955	-2.613081979052367	-1.700840754094088	-3.147855004693611	-3.034721359954347	-2.111929495198638	-2.923393883365861	-2.599944628047069	-2.480965720370477	-3.786878307039387	-2.359306895195459	-2.377485976583557	-2.599621082255453	-2.007962630251996	-2.348144847513595	-2.027797421104879	-1.203541447752741	-2.712126665930555	-3.943824481508955	-3.35760798533147	-3.88788461924446	-2.901349917857033	-3.396024377386993	-3.738202094694998	1.895195572269813	0.8698405382153851	-5.567301332536772	-4.789461174071675	-3.194664443390593	-1.774888230972465	-1.898259347981366	-8.567743386266784	-1.796792470151559	-2.189527876560533	-1.118542865105837	-1.914924548833369	-3.798348051072026	-4.258544836119199	-7.247084976629139	-6.542004645931229	-4.055180127105132	-1.549488078275772	-4.63881537948464	-12.4216050616244	-12.78925940739532	-11.34694551495795	-6.028685744296808	-2.876762759648273	-4.391887871901417	-3.744985219877663	-4.438816235316835	4.864830072591531	6.253786059295408	4.644922254518406	0.4471331386573638	-2.746657637959288	-2.385041599809938	0.4819419467994521	-2.194943138833651	-0.7122189335555049	-1.190835860136758	-1.549251697641921	0.5829091007287843	-2.504509703994245	-1.965218986610807	-0.7841291854172141	-1.095163465043925	-2.331190650498911	-1.851095083032988	-0.5586911221696482	-1.090579645828257	-2.974890465188992	-4.119231656206694	-3.285423835437314	-3.700700817061943	-6.105869064600029	-3.79824731148733	-3.719869871617675	-8.00524389637485	-12.87285210512778	-11.43123432602806	-11.5813311197644	0.8106130863311591	2.85626471185401	6.261072000433842	3.569284982394947	0.1079641105518476	1.519863589775014	-0.4479544142973282	-4.047079514352163	-2.276703724725849	-9.918901291406428	-9.780859154523796	-10.26780673932399	-4.938384993167347	-5.690121924098094	-7.644248432460245	-2.775883885949497	3.477216129115959	-4.991427512411065	-13.67442332816745	-12.44764655176846	-11.52661439408871	-12.04480808577659	-12.14557662901484	-11.38178626874969	-12.46179266120316	-11.69792252883576
-5.472062165609941	-5.38497180657896	-5.710707596466364	-5.948858105597992	-4.936354429355106	-5.954687790660728	-5.414616323683958	-4.699831420510918	-5.568883197821606	-4.869712054856564	-4.41221447647581	-4.618460217793654	-3.852484503055393	-4.813597122628153	-5.108043791033879	-3.952524856445734	-4.986143388596702	-4.209085190996802	-3.771546500740442	-5.438731029760447	-4.241451039232061	-4.083481584537139	-4.325422389022833	-3.472879516099965	-3.874912996119747	-3.788861895096488	-2.912979961828341	-4.191809920929018	-3.564697717507443	-2.715207494207334	-3.071338044072718	-3.113056337022954	-3.342582086584343	7.8436168872488	21.70665759124927	24.52581130640669	23.04735079770194	8.147332365554803	-2.213892991843295	-4.077651017819335	-3.684892519485629	-3.872883040870875	-3.754211728503151	-3.241880860532319	-3.752199119564239	-3.212919160099318	-3.209115907274281	-3.544768427197596	-2.160680144296975	-2.35487325673671	-2.662602272091362	-1.912401623433425	-2.811335970892969	-2.325665283387252	-0.9362982045940953	-2.00035372402067	-1.730765204692943	-1.695163561382742	-2.276610012807168	-1.247657546422033	-2.272019678738388	-2.874948794134298	-2.852741716750643	-4.295275077437509	-3.177672161966257	-2.17024648448546	-2.548247247394329	-1.817557447061972	-2.662758253667107	-2.687385920353108	-1.276580953850498	-3.259894524660012	-3.266802150739295	-2.367818247511195	-3.057643805358111	-2.860241694764227	-2.587267533426711	3.454608507768853	0.955112708260458	-4.813140127261477	-3.938385937761041	-3.686878402887487	-1.447534197822279	-1.395840813018594	-8.818427253013397	-2.618640185759432	-1.717358382913062	-1.486795132391308	-1.303176990856855	-2.736786528662151	-2.538687561009056	-4.173596413162386	-3.907083812422798	-1.888924574281191	-0.6711081966125221	-4.378423523035053	-12.16828142439385	-11.92381795467008	-10.2043945454061	-5.355381077781658	-1.79000842051164	-3.687316897156052	-3.997156088106749	-3.165106402945185	5.215577397213565	8.937869147760011	5.010400465528846	-0.09820897667964346	-2.756545762100814	-3.693397195441776	-2.116485940212442	-3.609536108935799	-2.814488520542909	-1.531096966128871	-3.22931438312753	-0.8587309669512706	-2.459600727040879	-3.480932691403723	-1.141521079802487	-1.334456245535421	-3.784472920423468	-0.9187895968084376	-0.6154216498648566	-1.515285169883327	-1.962908148513179	-3.944377652335106	-2.726504771528198	-2.248004459205504	-5.301064114498786	-2.628430980783378	-2.884573803823059	-8.075214351983732	-11.37573522132288	-13.2899094708398	-12.49313953539126	-3.403574803101719	2.187435588458584	3.812933460864542	1.597568859471949	-0.7071732690205863	-0.8564137593009491	-0.7379357354288913	-2.749240484173015	-2.829027711497702	-9.559362181317056	-11.36532410007317	-9.586881445647123	-1.338908439940951	-2.306585196925425	-5.368649793436362	0.7393515309991017	4.797269452467162	-1.100616684328088	-12.83455899755381	-11.0401644926028	-10.21145372673618	-10.96774168605725	-10.31662689408699	-10.57965530483602	-11.39785885860579	-10.29293858886649
-4.577939609986061	-5.743653108597982	-5.077183157226955	-5.468364482981769	-5.57594255848926	-4.38358774927292	-5.012424662433887	-5.013023138469862	-4.349217500353006	-5.225394694924034	-4.215199211965228	-3.655095347262886	-5.126925348018403	-4.609304562915895	-4.902101150857561	-4.978590809621437	-4.268866203843118	-5.209631324870088	-4.656448043718228	-3.933912443328836	-4.576331138611977	-3.942714457806687	-3.848448954121977	-4.426968189392937	-3.427447894594479	-4.585353400141457	-4.591230300209645	-3.449790508211208	-4.107518430600521	-3.690072775594444	-2.703100102838107	-3.987934595027127	-2.464946836013041	7.724401966141841	21.7293088590834	24.5903499347985	24.11488261806608	7.039447227697337	-3.159502048436252	-3.958846001688698	-5.113275525405015	-3.730756307856382	-4.321010429828448	-4.772977659810522	-3.52974783475247	-4.56768971346969	-4.258422460147585	-3.599349499019354	-4.185681037987024	-3.36745268502932	-3.250814143459138	-3.82653130803601	-3.200422397826287	-3.726844825545186	-3.166209397245439	-2.186985293592215	-3.145852534508776	-2.171973510307225	-1.714581247905244	-2.454542047749101	-1.703913110336998	-1.76660962213009	-2.632359937972524	-2.013527872666145	-2.001281053155026	-1.822652242962931	-1.016044380624862	-2.480404758100349	-2.54549966161585	-1.818633811660902	-2.382382522487205	-2.960525750776014	-3.946780250171059	-4.244928777161249	-3.496450896410579	-5.59291574730355	-4.423257698056887	2.281242119483068	-0.4981341266241088	-5.46677530866009	-5.872533221325966	-3.283556067148766	-1.967045418444513	-3.456921035952519	-7.970643874801681	-2.12940353048225	-0.5720848475496041	-1.868364943550205	-2.662546258659177	-2.285449638471164	-2.991582618707525	-3.173011787709811	-3.428448071076218	-3.818279256243159	-1.959992061609228	-7.757405956864659	-14.26887644668341	-12.8768771350658	-14.0513255733797	-6.998664384654376	-4.821985152059597	-5.618387794978617	-6.426150892209307	-4.736233169548768	4.377538189163488	10.13600686097402	4.314328628011253	-1.985342153714555	-2.657169053589996	-3.121278372581855	-3.313538286359972	-2.92128614161993	-2.654903284981401	-1.575503543402874	-1.855763679531492	-1.112841363391908	-1.805144439149672	-3.090532884211825	-2.172752142979334	-0.9605821829859451	-4.12378709906352	-1.257163668725752	-0.2551974721943679	-1.898152615944355	-1.76711251252982	-3.518169206687617	-3.934287901597827	-2.59146160690625	-5.023295328453742	-4.169950988226674	-3.414899607367715	-8.757862480610811	-12.35040746015102	-12.70743844923663	-13.78091682128866	-4.488127271700478	0.4393604321885505	2.497297922055623	0.1095894396264612	-0.5826626027831026	-0.3214222667977538	-0.350230052821189	-1.258691732598891	-2.574167855573478	-9.947034098388713	-11.24686438614003	-9.081579029105114	-0.2727693592898959	-1.767302564176816	-7.156885988208842	1.261653383742896	4.951661525646387	-0.967633114190221	-12.79757860372638	-11.22500084734611	-10.51386519481753	-11.7423712679315	-11.23550674050648	-11.41860564862463	-11.88200128575295	-10.9499421848077
-6.45986772139031	-5.810548520564225	-6.991139341799453	-6.248929459098463	-5.728113682248704	-6.738432004813603	-5.789652030625575	-5.88192862372739	-5.70848915471197	-4.560631609421307	-5.568908868381641	-4.728788892891544	-4.478976644134946	-5.623183148461067	-4.673114727143457	-4.577382743460703	-5.273725909330096	-4.062318628826233	-4.691411688513199	-5.217160718338391	-4.109518945843774	-5.159689827862849	-4.689174904099218	-4.509933881644201	-5.866543318616095	-5.502829448212196	-5.436656220201485	-5.836204408163212	-4.568392736995747	-5.400006902740643	-4.23900282148702	-3.693109599727904	-4.388811624379059	5.803544953328583	21.81685678841677	25.37210435548013	22.91510812879255	7.284820976059109	-3.812226904868112	-4.659199477005814	-4.281610510425935	-4.717864280808953	-4.186740424337131	-4.531329292144392	-5.360759954352034	-4.652904172141461	-4.829934449255234	-5.356561710684673	-4.589198226701001	-5.581475150753931	-4.935647876873418	-4.10374017593108	-5.294143898837547	-4.369797586983623	-3.625702476761262	-4.188951517345231	-3.534875119016306	-3.900797674308251	-4.047442971865848	-2.625285808995613	-3.885831261302656	-2.979054531368547	-2.771672474802926	-4.037039182250737	-2.519060687282717	-2.770797112923219	-3.005604726000001	-2.403109609133253	-4.064414813470194	-3.651788285490738	-2.684487864740504	-5.204763130222773	-4.992717924096269	-4.749403621584861	-5.818213564486769	-6.539347720806518	-5.728363863684308	0.09631583796067389	-3.690244477375245	-7.788295900357753	-5.421918704041673	-4.664501476144551	-3.404210276819867	-5.291448467672581	-9.438544328052558	-2.39176966060586	-2.794796286969586	-2.431824372929896	-4.35409428353114	-3.686905557783575	-3.233812585686564	-4.223370826876589	-2.092639813941332	-3.237964189220975	-3.952104154582003	-8.730960276943961	-14.97068088469564	-13.22245370895371	-14.17204165834733	-8.176489477347332	-3.215727122552607	-6.819328492972318	-6.503063438377694	-3.438396043496368	4.859624771255312	12.1656750320833	3.439146297044999	-2.144940224488664	-4.182920735492416	-3.77133708124984	-3.274555970254596	-4.459458964702208	-3.089459330760519	-1.712089591269887	-2.77561193222914	-0.8959397427097429	-2.50823499766102	-3.735588996692968	-1.370141760231945	-2.026539293076894	-4.960816563768503	-1.624164927059155	-1.789361079208902	-2.092313762482263	-2.364836274502977	-5.675869411259555	-4.668216155177561	-4.573738225295529	-6.366393608171393	-5.106186491581411	-4.820510365148721	-8.964331643338937	-13.92826091737743	-15.23932280585973	-13.85352140821874	-7.093181123511158	-2.792141841739522	-0.7975932020633536	-3.54746349292941	-3.116010503087182	-1.955308636620657	-2.040530040208751	-0.9832133641368728	-3.308585982116938	-11.59640788894012	-12.04715365567063	-9.607859543954419	0.8866831189245659	-2.214394284334276	-6.248601870753873	0.6190039600555792	3.82284352291299	-0.4046485153583035	-14.06712328989511	-12.80361938891497	-12.77596276321697	-13.67568983175079	-12.43186179309123	-12.84097652203491	-12.99109400090947	-11.55651983666189
-4.534009501692481	-4.896008225555306	-5.461057349577004	-4.603073924590035	-5.829340091962877	-5.972037501830755	-5.66191483015723	-6.728887153357618	-6.053126789223825	-6.416030721776451	-7.289674927201759	-5.417110448159519	-6.373343097488487	-6.733440276854481	-5.680514202989798	-6.300230815311124	-5.704688175349474	-5.170041109628755	-6.010425816551788	-5.097354120021464	-4.891039183654811	-5.194754546418835	-4.032486172104882	-4.676940284957254	-4.342780213679362	-3.751558645372825	-4.427636633763314	-3.504168371852074	-3.213701121965414	-4.257573329266734	-2.357798935126539	-2.727894470690899	-3.075571125343458	6.898260669722731	22.71404011904406	24.88201569111516	23.71593591153828	5.923212907116522	-3.221620229046721	-3.431671852927821	-5.474928429199963	-4.124953090377403	-4.152398830402262	-5.285290864825811	-3.734106551475634	-3.6977165660835	-3.68534502196303	-2.739566389996526	-3.522299004224806	-3.112246962922654	-2.479558998963057	-3.690279451355082	-3.026186903067128	-2.667837491298542	-3.271037963153503	-2.425952164476939	-3.094691335037396	-3.188477154094016	-2.120481492472891	-3.096690829101817	-3.157063075241012	-2.41068221312571	-3.366524300164883	-2.815952684049307	-3.219955718930578	-3.952951677620604	-2.070268884115649	-3.479336493336632	-5.075503067626641	-3.168448120461562	-3.600111287343452	-4.131681529259822	-4.742683737094467	-5.616673543761635	-4.173243233123003	-6.385569382295671	-5.09293242515605	0.03916161360621118	-4.650081750746267	-5.567296270334509	-3.689155321894759	-2.798396036556142	-1.825993609772468	-6.974921923375405	-9.362076971589431	-2.572319817621292	-3.402095112114466	-3.776272682494891	-7.594947281847226	-3.631702845174686	-5.391744371599543	-3.955865912915215	-3.00469881504182	-4.248480889630628	-4.680925411741782	-11.42174095906785	-14.34738675197491	-12.90480806771461	-14.96950498826709	-5.761211551494853	-3.996132512275153	-5.092208506966927	-5.856821017344146	-0.1882645038544979	7.876376921076599	14.17892489717292	4.966873822235584	-2.113377472741149	-3.218698140392689	-2.806239596221985	-4.245649865308451	-3.771947088862362	-3.879833739466221	-3.349410404773153	-3.103156787371518	-3.183183668001448	-3.939742288878961	-4.495752729682863	-3.70016376240892	-3.177054401988244	-6.39127585387314	-3.661955225252768	-1.363804451243823	-2.374390090563793	-2.217702698657376	-4.097924917200544	-4.535155283176209	-3.289848063270938	-4.723497939450681	-5.048325336600783	-2.86591468904453	-7.386238059493508	-12.41193910365587	-12.02570832222386	-12.44498735003958	-4.271080060500708	-2.02674983090651	-1.076779681185371	-2.86692960552341	-3.765849921749123	-1.866441476990985	-1.840667950700663	-2.860145617355556	-3.713242775529807	-12.5733253591236	-13.87747695772032	-9.217095561136375	-1.561269123967804	-1.131130912427352	-0.3584216106860367	-0.3508544045091639	3.559464264688131	-2.044707968245802	-12.21116789289044	-12.73672776548278	-12.70806581626721	-12.11672313053964	-13.04127160067969	-11.96209421793401	-11.64625212910209	-12.46253148587607
-6.159365805718835	-6.565505532154248	-6.569912160250169	-5.761042518427757	-6.693342109759897	-6.478649610798129	-5.75662468317546	-6.78564933309508	-6.258207872172306	-6.734231425228927	-7.320753853650103	-5.759071513859681	-7.139276670946629	-7.413631159758552	-6.239118355686742	-6.568937030632242	-5.894240078576104	-5.38119568408024	-6.009441623637485	-4.998551754146092	-4.760296500604909	-4.928796305280912	-3.977366025040283	-5.036168721841705	-4.830111829636053	-4.487640063886829	-5.579228680930783	-4.867115800850343	-5.232161430493079	-6.381337618340467	-4.499417411932882	-4.907067053811716	-5.847478012152351	2.93832947094711	18.52667166975903	22.45910876362427	21.17300082991073	2.82383963241773	-3.543304591819606	-4.097048331456108	-5.649091618497096	-4.722442548285471	-5.99384341268069	-5.501909011434691	-4.74522642459192	-5.296921081870323	-4.481902338912732	-4.539434787893015	-4.572867541299729	-3.736189070458749	-4.775404390699805	-4.688296897949385	-3.61017217248741	-4.2000389899938	-3.904811024682886	-3.575021997058684	-4.109645401840908	-3.116993140182785	-2.936115946657537	-3.411295384262303	-2.687620557835544	-3.420872011722395	-3.242481000775115	-2.925675628647696	-3.647664986797281	-3.279175571608675	-2.517283021396452	-3.52904656126816	-4.055501680468751	-3.880545118958025	-3.507300732188014	-3.797476545543077	-5.084079887856205	-4.46635370111494	-3.855400560062662	-7.191230860503765	-4.47159372103738	-1.932464203782274	-4.682282726119638	-4.899542783231482	-3.182894530520116	-1.054373450102958	-1.377402949459338	-8.257071953627246	-8.656878191164878	-2.463342957198392	-2.350643280745771	-6.430541002385098	-7.008702366847956	-3.58994662782834	-3.004316040824278	-2.906819214150119	-2.060567760455115	-2.019181359060894	-6.314935005680127	-10.60945337204589	-13.58653703752657	-13.1931894686395	-14.22944678971066	-6.227714056582272	-4.103952630239291	-6.938650172249027	-5.651455963646868	1.04838152649063	9.05370422209603	13.29573537452893	4.580709294544704	-1.107741100812746	-3.82961674481362	-1.982536546542406	-3.444579615768816	-3.946930264509547	-2.292552013539307	-2.641301073394516	-2.605239310919387	-1.183540902363802	-3.241085252324638	-3.914607071871387	-2.634585879809492	-3.534789686618751	-4.920543779370064	-3.332488503159084	-2.71650969410689	-1.86142623955061	-2.886822502499172	-4.21105188613501	-3.782019034501673	-4.118387663412022	-4.246909760048993	-4.480701530880651	-3.830299696422117	-5.482256130798078	-12.21506122406822	-13.06361519636016	-10.97872751337218	-2.814925470603384	-1.073488963480713	-3.314035180559131	-3.65012439939369	-2.75125592956465	-2.810577196235499	-1.557826361180105	-2.497828078366865	-3.80583422015593	-11.42156514801263	-13.43218765795109	-7.967415995473175	0.4667080609335699	1.448899420105363	2.765007304389201	-0.3195771435171082	3.305176842548235	-1.377315683730785	-12.63001280810704	-12.26709128691641	-13.75765121244967	-13.17757581819637	-12.71684655038052	-13.64051211183892	-13.23130734287975	-14.19416105360847
-3.944706824491277	-5.053119872213301	-4.45806667177385	-5.322975296998493	-5.793253525699583	-4.72896070015986	-5.384004303568418	-5.413007572270999	-5.060493466772641	-6.109812272115505	-5.091463121827701	-4.799185278315917	-6.029772341098123	-5.435474306098058	-5.659536753289558	-5.925444059688061	-5.489809251785118	-6.039556619347877	-5.264828836604011	-4.852292290539253	-5.652932772620261	-4.688945510766416	-4.340906551338321	-4.761177148614934	-4.02063265953484	-4.897833137551743	-4.534585858555602	-3.485685647953233	-4.79397472627943	-4.772234851354597	-3.121626365938027	-4.09946901575745	-3.474148847572224	1.010712210584643	17.22609353106509	22.32382766796445	20.5580743168689	3.327322251463102	-2.553323561355683	-3.536143022930901	-4.688233549440156	-4.598906960216709	-4.987187547788153	-3.882358658310295	-4.412195529740302	-4.044212932399205	-3.197963846008633	-4.18491822980809	-3.112795488470965	-2.951134165356507	-3.991542264499458	-3.144929964766561	-3.528999473739759	-3.725113572805185	-3.136694221989728	-4.26793441969653	-3.775345486497145	-3.001216525280142	-3.897275727250872	-3.578916084269849	-3.763931662966115	-4.619796227576671	-3.619576869167986	-4.27139761863873	-3.954613479755835	-3.547657621328881	-3.839968967081404	-3.260424539329051	-3.455582396356476	-4.127120168679539	-2.555057306430626	-4.207189140858873	-4.929208817770132	-2.946937904969218	-2.38522898067049	-6.484818699944981	-3.93177598818761	-3.923481620145594	-4.509888219274671	-4.910795413694586	-1.919441533940926	-0.256744357041498	-1.218816530880758	-8.074036256058434	-9.847746527887011	-2.169083678970765	-4.481296701835618	-9.05679127594658	-8.182698736557541	-6.049235194310995	-2.583934414962641	-3.611492120630146	-2.227913175093818	-1.892818100437353	-8.147495626669524	-11.22537058182138	-12.73082502664261	-12.41578464972008	-13.65538754448039	-5.998703139995769	-4.322421911478614	-6.326765492328377	-4.625668057941539	4.128365457379232	9.049544824843679	13.53787796963456	4.299740960840381	-2.713463720847358	-3.255393501998924	-3.203511902596574	-3.971413697268872	-3.200478666450408	-3.722808369795075	-2.174370837563629	-1.754503400030899	-1.917129531473165	-1.447836923493014	-3.301828282227916	-2.448361590111062	-1.760100288663125	-4.469831995008462	-1.958871232843649	-0.6055420583879823	-1.580985436796027	-0.7838564799228607	-2.384671379828887	-3.426356894129867	-2.289740089492852	-4.428922252491702	-4.543838236692636	-2.398363226101537	-5.627151680091401	-9.47415175572155	-10.75242620689869	-10.22505896131156	-0.7910067843336037	-1.317153388258248	-3.242742114620341	-3.143548856627604	-2.676919123276548	-2.101776929088828	-1.1550629218832	-2.029279769876439	-2.157844235193579	-10.53236180129284	-12.82473677627672	-7.747187957776305	2.145390044572196	3.628611302768377	2.143012010100165	0.5132649404333733	1.078740983514308	-2.051260907751384	-11.7784641856947	-12.9949581585056	-12.09450695853616	-12.1384254634022	-12.94270893362614	-11.79939004935227	-12.52299023589785	-13.40643173175295
