-10.1863865988974	-10.36819323677599	-10.03067377196754	-9.916438505243491	-9.94475645583816	-9.996528416939555	-10.18000389225142	-10.06335728706188	-9.966937943244147	-10.11524430094863	-10.27835306847066	-10.61721040178355	-10.63773534689159	-10.6472249935407	-10.84344482487808	-11.12667243309915	-11.52687641754102	-11.77266598050704	-12.13258906032746	-12.46546167200512	-12.34592061229682	-12.37564713535551	-12.37380248064306	-12.21818964360148	-12.26803458670918	-12.57978837452703	-12.84395136828999	-12.93161219799225	-12.69861506788078	-12.56476641385524	-12.27159577455717	-12.02048075423693	-11.83686924260331	-11.74142903475763	-11.63288734182294	-11.33621859118284	-10.86343304845025	-10.49703208160912	-10.04274078822488	-9.69095811805056	-9.160863517764142	-8.094004733223983	-7.217750603853744	-6.75285553291161	-6.613808445024802	-6.331842877917381	-5.599918162422398	-4.360936994832116	-0.3963707592683363	-1.217190264068961	-1.390417053123656	-0.2108989809830177	1.102754053900128	2.156179058735063	3.293231583263264	3.87980725099635	4.210029359162775	4.554772899901764	4.848158535227299	5.151675327086082	5.451498797214242	5.642871504821073	5.906117887087078	6.041667141413257	6.3032140811506	6.498547026095537	6.560113234599442	6.939367074361314	7.119878981621866	7.235859190951658	7.554176308218985	7.654891981734977	7.869203774281402	7.99276227085204	7.998180864297353	8.197800570548964	8.178395921166043	8.173385235166222	8.313617117795957	8.283912140357302	8.454735787004893	8.660748661326295	8.725760181601402	8.923096898567735	8.773917837377155	8.673879951313893	8.517446162451279	8.28640468088588	8.124912784570597	7.832234661802488	7.565444962472611	7.441315839584661	7.286238703605818	7.370184404749693	7.133706974392339	6.978921310687269	6.869915192785868	6.629596861441883	6.502097976392065	6.675881734348309	6.704272380019006	6.855302046176973	6.83729751199246	6.82722751412166	6.850021172315905	6.830370875164192	7.037212897364896	7.032395615125949	6.7836263397013	6.396050848249786	5.887880930674726	5.686550423449205	7.005112457682515	7.284926904647591	6.413094599622468	6.152431430536467	6.146290462699369	6.130902370188153	5.981488156257171	5.997595969689428	5.881099091385181	5.57244865903823	5.255324810353443	4.472203569130954	4.007414716113374	3.456781613116505	2.933972686598906	2.890577184448262	2.957030800035966	3.073268865498221	3.356711255185303	3.881887425572302	4.368107256926692	4.264711261502327	4.038137365566854	3.985096787335976	3.945414114773257	4.229491646369468	4.347893642546978	4.264841280446149	4.477259855628972	4.589882233379114	4.818426301768511	5.124268896371404	5.281746567932942	5.529180752667685	5.657056568993767	5.700119746455755	5.876929550292061	6.077949927304871	6.300594438706241	6.549902564082288	6.649941624491362	6.848591763162347	6.987878634877859	7.148401304614026	7.245426851934383	7.287348974749079	7.399595873350336	7.521324724938097	7.54984575755185
-9.460788434825986	-9.716005459349049	-9.402293080061554	-9.251801713194482	-9.197747878836026	-9.179291718586342	-9.392645370120306	-9.347342964945028	-9.12708729458177	-9.341959239893299	-9.570856922286168	-9.719613219099358	-9.809414695391581	-9.773734291830237	-9.942222154524075	-10.15522164139412	-10.20605480142535	-10.40021488711176	-10.58967163221882	-10.98820420737781	-11.30543483445251	-11.51927280645816	-11.85732029009023	-11.90144721751136	-11.85393829929717	-12.10075838372876	-12.34597440752634	-12.54192178700691	-12.60321839818738	-12.40999132591912	-12.31733564161988	-12.06329030321791	-12.00656694983394	-12.14496747904843	-12.04150527617372	-11.83258423159981	-11.34756756654986	-10.83240115341192	-10.50099311420649	-9.949679651907331	-9.621392484913656	-8.944287042620431	-8.084348960586794	-7.703069222450438	-7.288279589102046	-6.888937122518257	-6.558518112104423	-6.017882819200508	-3.075625403499373	-2.181726397495538	-3.009636417224954	-2.143917836773255	-0.6453321963656435	0.5358036054964828	1.56043720698591	2.635759400275674	3.172099196825627	3.869441793309932	4.500831262180384	4.824070214540995	5.276535083647389	5.508428180446742	5.89770602727782	6.20449680685374	6.430608803025734	6.774839110056519	6.964116115587501	7.201240335752289	7.481820012311687	7.645681215429079	7.861396019451035	8.119660655742052	8.355891229009615	8.730132717701281	8.879409193646666	8.969190486847424	9.17670175453884	9.065730090369584	9.216642714244131	9.148920801052327	9.055159920766357	9.045672799320471	8.969974647481763	9.125677860992084	9.118806301229029	8.952849066705653	9.063891594583993	8.963531238601547	8.891515311255603	8.743728164302695	8.57649042871401	8.54932831297964	8.464222877773068	8.249093260817858	8.046032035636813	7.839406440114601	7.681922019719877	7.782188031908618	8.600577241046949	8.811393771882251	7.952976828354622	7.428265650168555	7.17228652346347	6.960795946468238	7.1353268617151	7.15206161609575	7.23098386893173	7.371444416676184	7.192387457044958	7.135710132922213	6.840376715778632	6.466172799082472	6.60121899030139	6.490375953093746	6.732227143867135	6.988727236402497	7.036926689422046	7.141887307142895	7.130517787789927	6.941718887984166	7.022556181585173	6.794209865361267	6.57831731287979	6.23111106475568	5.597713091317303	5.200495095634949	4.792092740037845	4.497932742617877	4.592376229627973	4.867328266969423	5.601409823344852	5.535841901402534	4.788686168039987	4.773990951048575	4.706775783939293	4.867603317255089	5.03623495329532	5.09447859157342	5.642079733201228	5.834381580193963	5.78996605160637	6.110385450202045	6.179877622985032	6.290372211364399	6.363975165141426	6.476772250663316	6.73494233840421	6.749160432959286	6.795594462232771	7.126909110660108	7.327166484023849	7.583409831552501	7.648918090321899	7.782684938247655	7.948280866723564	8.017181359911945	8.278344248465771	8.453790356229831	8.461623693334445	8.548565322703666	8.407184756602646
-8.753572480158141	-8.824888510271819	-8.721897514344391	-8.399258998102084	-8.443804055118164	-8.488682286741096	-8.343365791828433	-8.280536364171041	-8.048049571490424	-8.114671876062744	-8.425118704631245	-8.31066297375304	-8.280631545370795	-8.261526574124673	-8.280086945817231	-8.451144613811607	-8.344944616625469	-8.399640060250704	-8.558653893137091	-8.767085431796374	-9.219726866420217	-9.630205322943198	-10.17587342779024	-10.87016435845732	-11.04926304189769	-11.19097735964453	-11.25771872278676	-11.40268286413476	-11.70557211773826	-11.46304262199925	-11.3848947011852	-11.43082734060812	-11.41612434484824	-11.71938995759137	-11.75676637821977	-11.76941493791441	-11.60013648199424	-11.14262170639586	-10.74602057882549	-10.51819574881915	-10.05961431041055	-9.70082906943469	-9.039597658548644	-8.454524321437759	-7.832326003612025	-7.159436129586197	-6.812137818036945	-6.436495077851248	-5.833455876387347	-3.896661758567518	-1.238903066631508	-2.971393413932901	-2.302390589826359	-1.032682960920795	-0.01622812943662666	0.9881382002068904	1.810683391158648	2.6628625246409	3.75238516278381	4.55804164722116	5.189240561961583	5.596120703102713	5.868199532287861	6.300117634503238	6.601239328833287	6.954211659668374	7.326614469072297	7.572740098019835	7.726431616329648	7.983904126076482	8.235875030241345	8.714338253758569	8.915651171218315	9.180442583227318	9.400852804649446	9.530896584263928	9.738496792870478	9.781842895741761	9.853404475860032	9.948527425607836	9.828247034023832	9.829956459380298	9.729287695116341	9.461782832929032	9.424128955018205	9.304244430431027	9.38928325256893	9.458615522963441	9.335019048779031	9.283036864275232	9.232012501258566	9.275726228222084	9.404359953172616	8.967014492801923	8.621952599413305	8.479873853109098	8.448419415079456	8.651596055933453	9.674294669603853	10.42940168423127	9.411288088150229	8.47396063459604	8.183065334283015	8.172009691338189	8.208543360248427	8.252752180493871	8.194321943939997	8.388220252815472	8.490976929346914	8.217508613363066	7.921746849377087	7.872887297066313	8.03695645302264	8.329864671556606	8.293050436553585	8.478854050421489	8.607488053153418	8.632967193528827	8.645453690137685	8.513449734186963	8.449573933803208	8.418045983927129	8.224976354092576	8.087117507886546	7.633356239807824	7.089616866289361	6.670453748499085	6.168026890717442	6.060922329413472	6.079425634952713	6.022805442231743	6.193710662178262	6.184862412263101	6.277210197197292	6.415339010135142	6.443078343110813	6.551216964444961	6.48877396876378	6.571443108122878	6.902566322429664	7.119941391850261	7.314507207711245	8.029561170963689	8.347206541041658	8.109206623349223	8.0189052794845	8.267346216147473	8.088798296666823	7.844814537329796	7.998475681679508	8.01126294117239	8.037926876290726	8.159844706946842	8.240738529740327	8.468813638604104	8.70856880287397	8.864544421594758	8.979755417431534	8.93588073850816	8.90678539493598	8.814707252305766
-8.184094362284895	-8.168516415617205	-8.048644636354595	-8.089924718482337	-7.912593338010026	-8.116135128871122	-8.05327043986	-8.011666105535767	-7.8192624352385	-7.725106063501357	-7.909262042526052	-7.780509002700285	-7.703112386088037	-7.703037370155528	-7.553582965733199	-7.577554519892658	-7.588297119773586	-7.485313167034576	-7.645142200931446	-7.703515815000173	-8.089287793196888	-8.502518685971097	-8.939851310598783	-9.656142525135351	-10.01160223435954	-10.10478783697204	-10.17893129738349	-10.34111711019352	-10.41179454655804	-10.41227764072534	-10.29748676560007	-10.36154373621099	-10.37852868272444	-10.63287872616496	-10.87968256965974	-10.85323365204499	-10.83538413775767	-10.52090312368193	-10.15146922875653	-10.03361028099039	-9.838320891221599	-9.690903272752792	-9.410770639024861	-8.571526693479598	-7.871217915350485	-7.234280272647595	-6.556857502105913	-6.229307692445332	-5.565468643055453	-4.948595740840062	-4.279999671309383	-3.43115295422615	-2.648002944177961	-1.73795110679265	-0.909999482494527	-0.1870110044044395	0.5659997525841618	2.019563709166448	4.907252711256035	3.979636524658645	4.292902092249847	5.009367848671332	5.369112880774537	5.836255472017569	6.366099885073481	6.563121082447253	7.002910636035892	7.382431298543395	7.653241813550608	8.011426849543341	8.412809439151829	8.66905681925374	8.986584591485268	9.16194896496603	9.451167360255965	9.615141668404476	9.818181156908395	10.13559047277931	10.22752045254623	10.45565009948592	10.41903248894891	10.33583558540568	10.34221130526714	10.36982282314938	10.38095556315164	10.45466117357751	10.36424162965739	10.33820472221203	10.29439655859301	10.15686180604251	10.25318294183938	10.3407742407195	10.26682534184101	9.860699466427377	9.362656768133377	9.272852256055671	9.275718165128183	9.608025550492584	10.29264030966965	10.93158139996626	10.29848998196616	9.618303465402221	8.798148688107005	8.768323957027349	8.847702104539053	8.979319224923643	9.181132169705279	9.265451450508522	9.361320353128633	9.346801257986385	9.077996272107669	8.959344383055054	8.945115277986702	9.149888936286345	9.108125644812503	9.007900263909164	9.218906051594274	9.250932077754044	9.245165291785611	9.310237604961401	9.236116847942242	9.219919300328684	9.031201418259002	8.699414513312888	8.386281414199573	7.913804737547252	7.936240849388298	8.546462911890103	8.571201520873728	7.341087800348589	6.995856620668576	7.126161430474212	7.351720135817629	7.335650937384344	7.329970798263105	7.429230730883603	7.531000348263717	7.800358179637271	7.897326110143752	8.044984114650561	8.462794118121622	8.659386110138598	8.429764436548339	8.350034992605742	8.397853615146857	8.536921229154814	8.455028734487598	8.509079486414237	8.426648111722955	8.309653638438249	8.360766149103995	8.251241121737053	8.308532082226861	8.474252212971692	8.542243815113977	8.920946333687368	9.019916554015538	9.092589904470628	9.232745171345925	9.068365007214254	9.030757719030134
-7.662317849605813	-7.77311225563011	-7.899611731197808	-8.11441146194295	-7.967604496839556	-7.858461392475078	-7.759856408878534	-7.467438648843938	-7.275851661756974	-7.13497634093676	-7.099579971882122	-7.143183053769292	-7.021778431651057	-7.051969928308779	-6.904107397633027	-6.676103481377766	-6.683398475419267	-6.713760625799296	-6.766546657770448	-6.9112480304222	-6.946098803135669	-7.30046856542458	-7.877218383872219	-8.317122296000036	-8.704785753055205	-8.732908700892096	-8.823368208640034	-8.985982368292412	-9.12826190745011	-9.43182374158738	-9.410334375471962	-9.459576749377959	-9.636388782033976	-9.636955071208206	-9.902916339206172	-10.02531437103642	-10.13099583227449	-10.22254271510837	-10.09043865575626	-10.16030624243984	-10.08376773358953	-9.795849415344776	-9.570913896158061	-8.959441079171654	-8.197558744780281	-7.449055908323373	-6.381703395904083	-5.937809780082318	-5.552894059247706	-5.003360452975699	-4.538509051978394	-3.811254592979992	-2.916797291956641	-2.215141266322689	-1.323419465542656	-0.71362510102756	0.003046570469962262	1.118268769780116	3.428387472057807	2.604068768293871	2.900889337159015	3.70566901784531	4.372287239451737	4.883048017632746	5.483379937018469	6.053927370217878	7.062033867623995	7.598457253759591	7.778807636923489	8.032711027208791	8.272329295433792	8.481001032767949	8.951816443124756	9.267807503371046	9.295540651672809	9.597430703009763	9.708717581376618	10.00076943065392	10.27634101985149	10.31480689710054	10.54773030773481	10.54328862144183	10.54213032824498	10.49142389568601	10.48598120337311	10.5026814154063	10.28627933736203	10.06205304652673	10.15538395335994	10.16881126732585	10.30733212477708	10.40612145265953	10.35964513744585	10.16002528678382	9.90142754113441	9.589921508998941	9.429343764226019	9.468003647445244	9.900045627501811	9.959609616334944	10.3884017727903	11.20334289067716	9.924069299035523	9.399732302718178	9.543786250837115	9.625115302677102	9.792656830797682	9.807699580416795	9.827574622004647	9.885610702022348	9.806777801253986	9.68046294775354	9.513641374148051	9.421794237346887	9.500637558883966	9.46973763960591	9.550627037706704	9.68995396857099	9.719410189430391	10.00468108983245	9.986839471110727	9.917639946975498	9.827052598963917	9.460865325967234	9.236046151118842	9.280089461340708	10.35962905302989	10.07361377070828	8.187857515821577	7.90505035476815	7.931148790694238	7.906793463132487	8.098857424551227	8.23633376702179	8.224798947304237	8.289659994074214	8.275908444070751	8.387508340331465	8.432378436241947	8.55945758656236	8.896753019372909	8.88339881856615	8.887797246066384	8.873905647435492	8.741875627879438	8.794744434693939	8.712554026773773	8.654184373461703	8.692617514560311	8.552720097680151	8.611283636056157	8.609447849761693	8.565169590321204	8.80228136932152	8.817140561352687	8.907879814313958	9.077595443750624	9.02066821017911	8.862136495323512	8.914597735694031	8.956648324486025
-6.066644507895262	-6.57894758340052	-6.905057872041368	-7.427455570185145	-7.646633390082002	-7.276474878245608	-7.050288049011385	-6.626413972857563	-6.380228662135153	-6.219499265023899	-5.849070873180153	-5.779042574683103	-5.789952444568655	-5.800936104082268	-5.772082357103784	-5.490900064696177	-5.383530585038613	-5.364977166115864	-5.472960312628459	-5.617572744364793	-5.74675960160306	-5.488119647147528	-5.659696780170179	-6.614777788237518	-7.193785829645265	-7.540876700146327	-7.716242536794027	-7.960662263201073	-8.121970275472279	-8.45670424632533	-8.817087365704538	-8.870116751376656	-8.968173566782411	-9.061269138829914	-9.167226921054692	-9.465467208711402	-9.564471350575673	-9.736145949901982	-9.918745524164592	-9.744260594406967	-9.738935851981637	-9.517194784975686	-9.243989935633408	-9.173788343442027	-8.489966056713001	-7.834121454518879	-6.960437615861053	-5.997828875145387	-5.434179108676801	-4.786126631978732	-4.561059589553167	-4.220328759267147	-3.522255522182093	-3.016463308329207	-2.213264404151687	-1.485319431823882	-0.8820997766800929	-0.2569966021687833	0.092247262378919	0.5506969699178512	1.205025640524923	1.829697294135315	2.519268871977943	2.966695258286336	3.385629636702049	4.790716380440472	7.040772986703928	6.634846307605585	6.947039861056965	7.250762962570548	7.737834509382083	8.050319535107292	8.308477809063049	8.714977931593864	8.903360804815577	9.226007592169253	9.533982403294601	9.703150998393255	10.09377539765802	10.24535536753376	10.42760237325518	10.59582364189515	10.5978550517587	10.58676338426665	10.57469378522092	10.47005964194807	10.42167085781881	10.22724124005731	11.25974291123066	10.99967323039544	10.44049445230718	10.42983370350686	10.36523305710523	10.27885625045917	10.18878760428242	9.848178586461358	9.86620593593284	9.87395306741513	9.928254935237362	10.02924345518863	9.933038941511484	9.988149569364907	9.700618889543023	9.541152081762505	9.684519780260644	9.852354472513809	9.924784725573318	10.13974512148548	10.22636215031099	10.36806101137563	10.30546265479558	10.04683479149151	9.919500513763353	9.725180015106105	9.684368313799155	9.780146098233161	9.7819408731566	9.990981602014131	10.11843940554212	10.14894238880407	10.21360002422483	9.971787957797801	10.00193469198655	9.920273480929836	9.705490290379089	9.657520123285281	10.00073839720903	10.28872577743761	9.217745179914004	7.942210944166732	7.818556806522281	7.855389663254641	8.005560736238635	8.284569389600449	8.408237887294263	8.415705199303375	8.320148082545302	8.204105801636615	8.351369238454879	8.427771983862442	8.560676508992628	8.831203613178616	8.759348794667915	8.869938279529663	8.726372307244048	8.619156125137124	8.663384035950173	8.493757504304085	8.573228322352577	8.538435189957397	8.434847552781719	8.540829958949132	8.490439116133473	8.527940082060582	8.62284696963593	8.652316535155023	8.870174025557901	8.928686456221783	8.74621722225595	8.885053669450599	8.98816200894737
-4.072127449676543	-4.423779318061747	-5.02519636755494	-5.417947515630772	-5.707950765584599	-5.675747156852026	-5.611066746222434	-5.538193896500331	-5.288430546349332	-5.072587020044978	-4.776988962328971	-4.578603627658026	-4.55958639088044	-4.588178576024404	-4.390278441815894	-4.332862373896262	-4.055155510914688	-4.071390796410583	-4.155257059782514	-4.435929502614783	-4.818851183678134	-4.747808812282983	-5.050794813183757	-5.594632045125252	-5.830988074170023	-6.082014597243301	-6.085879523662697	-6.28822996200438	-6.646308892382251	-7.021253454808061	-7.639893589840881	-8.170770867520218	-8.482519394841972	-8.746161322551302	-8.764968707415505	-8.896489661651003	-8.864164956585569	-8.668514844376602	-8.69136883564471	-8.725278235438452	-8.912590555659392	-8.93541245963246	-8.665477334298828	-8.504120440676218	-8.180988520982623	-7.490048381150018	-6.662647706966197	-5.634202603138533	-4.915070060525181	-4.558471430152508	-4.081686820090852	-3.882958140212338	-3.510049903482241	-3.014115792096618	-2.510765914354693	-1.761677351841911	-1.382094969796754	-0.8771626236870702	-0.351508802914509	-0.214351107448806	0.2030345817531156	0.556405860781922	1.034092528360134	1.701588550505392	2.154195554676448	2.69559850951606	6.167453235092921	5.9569234926592	5.404398681696932	5.835057389701262	6.168115038292399	6.759312938035123	7.289984043917912	7.932570454169309	8.350452718853035	8.645028131636309	8.974017581557121	9.070293077768611	9.426903963151346	9.683330314733212	9.803793309654623	10.06859473128003	10.14292193132479	10.39336444126201	10.39559215116378	10.42125227930575	10.54320087850044	10.44225213377911	10.30557676355971	10.2777174177636	10.04917890422541	9.969757429798449	10.06709898661074	10.02279146802988	10.14323375067556	10.00486795075631	9.899365806902324	9.95990297816877	9.946091841711052	10.1594192637528	10.18924621464072	9.968274891105523	9.799542540443156	9.569766108163321	9.528247167178165	9.793954490710576	10.01308252123687	10.16625890634896	10.1888953041551	10.21274890842687	10.21895872571469	9.946986625829766	9.861979538945604	9.550200637663863	9.47718518852605	9.735292030342123	9.722063236222652	9.722966056107794	9.911610561729958	9.793137644157525	9.900899143158483	9.868563430038876	9.806183845754163	9.927668512325113	9.78518111195558	9.711853478268267	9.390699380913645	9.277695379418674	9.624726521083403	8.402240227899142	7.749587480451055	7.77449604808595	7.909382684848481	8.094572541443085	8.285887168300178	8.337620388594019	8.506437344231813	8.436727158238	8.441603072680437	8.478051647094048	8.503185428003519	8.685189635586937	8.723736483925791	8.650473904819364	8.624929588957116	8.503982316101144	8.628901197205437	8.606620164372771	8.50133329432748	8.496338317206039	8.300351830746308	8.180761210774222	8.278748960087171	8.353797022251115	8.513378228234046	8.464014037754225	8.561570266166143	8.757611585850327	8.739408644507364	8.652670583362521	8.653046176024475
-2.747794443895316	-3.089929097940171	-3.673948076340537	-3.99478880620353	-4.286254978514648	-4.644320517586607	-4.547256995095836	-4.501681811607853	-4.328299176657254	-4.213120728357524	-4.069210997252981	-3.723352694579091	-3.749068241202735	-3.873417940554702	-3.803050721542832	-3.648667646469562	-3.465812673570326	-3.384563664155053	-3.532412040746351	-3.550128876466147	-3.823424081216274	-4.036858841319827	-4.313663254649725	-4.607465215816887	-4.49599931932363	-4.654191208503562	-4.898230312062594	-5.023116529247943	-5.323108037476914	-5.395185796670319	-5.679050329492839	-6.114897835259285	-6.556504849386613	-7.116250284439161	-7.273311336219081	-7.309414182173498	-7.410437062426865	-7.277604054332926	-7.280089645952444	-7.469563325039189	-7.462769704689379	-7.443522320597253	-7.324888667707	-7.1503965098413	-7.156563445962888	-6.779164895040537	-6.22410065315313	-5.501187330093842	-4.575550244928877	-4.155437858653272	-3.486874361829734	-3.269972420322176	-2.996049929134699	-2.635787492476993	-2.4028353295908	-1.971033875080366	-1.486991965497339	-1.021884838992207	-0.5224941089387016	-0.06309281123293431	0.1502903066567569	0.5843540381766275	0.8909770623355939	1.305513451191985	1.728498699719978	2.13255064736984	2.707550956136799	5.532526553763546	6.795217851946802	5.451268298713387	4.95564727292907	5.348008067935041	6.195109588135722	6.901080802900651	7.577781854836758	8.059487975563854	8.450569751704393	8.832662305949611	9.062127130303907	9.361657345465915	9.577279063689673	9.827572721829824	10.01165534957732	10.33891435932412	10.57063997848803	10.44525950136517	10.39459259386831	10.34992298744442	10.11271000840975	10.01415418394612	9.841506472337358	9.742798622017915	10.01603136509777	10.20458190290287	10.14840377478595	10.1294825431732	9.989191694900683	10.01610517085277	9.912607610888301	9.994913019220178	10.14147211263742	9.964895648776292	9.762667071989142	9.61526242466249	9.546835636011224	9.743911185306445	9.913913191992435	10.06511233138968	10.30678378951762	10.2803493252448	10.21831570466344	10.04072713754454	9.680543723397193	9.50629222893582	9.244257767054364	9.212462625817466	9.378612634279023	9.345115086113822	9.616260328078511	9.750278686478396	9.800001693771605	9.882328972151413	9.79756224982907	9.894981928100208	9.856436767511127	9.579493416679725	9.423509753873645	9.231282177811977	9.74787699446432	9.517779852246633	8.069127973337459	7.808009028400932	7.867290140499449	7.927658025474614	8.215683238906422	8.312585027210957	8.351027690485466	8.407995208203658	8.293346533391286	8.479464696027378	8.463480779038434	8.485786851868625	8.712885837834676	8.645654338955069	8.64138256466714	8.559403817731209	8.614014556536119	8.585103652570751	8.488948624897546	8.477713595211469	8.451676155707673	8.340698608150262	8.282477321223098	8.127945970976839	8.109617252303224	8.205788794585601	8.204101374675986	8.462362489769475	8.283300851168633	7.966852944024197	7.87922292784117
-2.188329900970473	-2.245550156707395	-2.434213059476292	-2.748249000775843	-2.859043892212185	-3.093015201959929	-3.151258055983249	-3.267574663068274	-3.399467388307187	-3.162647751481529	-2.931200768848441	-3.256947972858484	-3.5100477938729	-3.734158429303818	-3.570181385862327	-3.511168970828919	-3.409216904958441	-3.333303806182073	-3.470598910718138	-3.551909523289112	-3.637042408980051	-3.796523602395155	-3.825486400770501	-3.743438036703026	-3.726050321955711	-3.615476380500752	-3.802330721636679	-3.750163707849993	-3.889763393937699	-4.057855087917972	-4.130565417170885	-4.567874363094745	-4.879445008586003	-5.200132345162217	-5.572177587151884	-5.677428012901146	-5.011854142831965	-4.983949019592387	-6.218132325666716	-6.795678532338457	-6.863070489169615	-6.627758373311394	-6.42223222583948	-6.340138917257832	-6.441030274272293	-6.386860970663975	-5.968242111840709	-5.518438929414344	-4.958528726470888	-4.506034710533925	-4.116652445044451	-3.703836279114796	-3.512755412396757	-3.183792581644184	-2.751051723854346	-2.644028415530784	-2.257423352617707	-2.014016263970404	-1.596173197892711	-1.041224840516577	-0.7763426789364871	-0.4618035366714253	-0.1429493901950991	0.1524492635747947	0.6406276004676101	0.9137864857970044	1.239056874809592	1.444767413213697	1.692513460529199	2.237795149558679	2.717383095952869	3.207487570848627	4.159048618587235	5.042719303471017	6.614027298209749	7.415652931767852	7.147010515448017	7.555801945021642	7.79995093249164	8.256514304871075	8.732506673619696	9.087907580644583	9.377869683413167	9.536002284981691	9.924245255805261	10.28140977994877	10.31634437093959	10.12024285848304	9.896553480059538	9.535866169460803	9.459411756669226	9.512183260623658	9.662919603692956	9.867059928739366	9.89364043974382	9.893666178096396	9.971378779030545	9.879283471285589	9.821731152067798	9.744597810625066	9.914366680857484	9.864596872097763	9.680412605550259	9.56396815820176	9.406114331022195	9.775464498882229	9.87722454989904	9.928919173796203	10.03776181656275	10.09098522926598	9.964197269328793	10.14670027833955	9.931278888618124	9.527963787303975	9.191614796852434	9.006709899320867	9.037447618033241	9.005201055487703	9.155788614882567	9.375278038180909	9.355724514289932	9.651404098658645	9.906448011532689	9.842749607567271	9.777942838458955	9.498762856933922	9.35488136505586	9.117015381467354	8.591278340102463	7.9804722392945	7.432625863078385	7.217321725299257	8.160616497670958	8.081826573804733	7.794607059033524	7.791232105701454	7.78803978332013	7.847808667730646	7.713485280657721	7.61292969157563	7.669500949746521	7.775471285823755	8.020999953997659	8.038852665848196	7.876304186490188	7.851379768388028	8.01186998221408	8.077601995993405	7.984636671380656	7.801819228317868	7.837745163644399	7.649094422592839	7.479356872352867	7.28112583202045	7.123379919526769	7.235786005997511	7.241680047387433	7.151910264605078	7.011301346366679	6.533089117838756	6.284342501619108
-0.04228151994743712	-0.3289522367052768	-0.3140809254782653	-0.6649717578266632	-0.8149456297206825	-0.9821749522307641	-1.233441723068665	-1.192596221546808	-0.9505758567919997	-0.7385993632021268	-0.9815126562629075	-1.44913157709118	-1.70511278574628	-1.960136172914133	-2.012305364386918	-1.899595803243869	-2.116223323669544	-2.373613984779354	-2.338893855729282	-2.377100604720113	-2.258181988657782	-2.299511092060186	-2.308622778544418	-2.13993982267408	-2.056585311225547	-1.909753787427746	-1.914645851595083	-2.27109020910558	-2.306359319044702	-2.54256549950469	-2.565456117529379	-2.740068841319442	-3.209269952733905	-3.571721226355294	-3.979070978320976	-4.131897046837992	-3.664900896526774	-3.88853545909285	-4.959484083659561	-5.445359183342362	-5.617421122249084	-5.193687302352998	-4.987683877597874	-5.013103410458086	-5.138705994919235	-5.279626794755529	-4.924472761394156	-4.491891250430001	-4.153162315386908	-3.841635874342501	-3.627710492711117	-3.275774195655856	-3.124905402710624	-2.95538280393248	-2.469463569990353	-2.318303304771405	-2.016217716589949	-1.752053891925868	-1.590658075450449	-1.185847663613231	-0.849702805167226	-0.4832792472435017	0.0203815177678166	0.1421315715307969	0.4684166356507831	0.6668741382417807	0.9409523167839211	1.340509410779987	1.394714253523546	1.539910184955204	1.858380049112895	2.040240317463201	2.601014929639575	3.423417409281058	5.530361322722911	5.410819009506554	5.251546648921021	5.650995781584925	6.288047803888219	6.832536764164217	7.446056539733263	7.784753063053415	8.18808864342742	8.515008247247181	8.686200841230914	8.985455825055965	9.216046737689965	9.162770014418584	9.229289452267892	9.059090032337053	9.486754040038818	9.191623597506805	9.013707323907795	9.261594787281581	9.392765259413295	9.371436953043258	9.578668634856001	9.607437842900708	9.622440698842752	9.627161854595613	9.675726803111218	9.75586292939812	9.551488145032522	9.471041895048188	9.272199321359665	9.185144582850228	9.574401024362714	9.522331290309864	9.578560292922816	9.809096321576874	9.843991179874934	9.904772979411405	9.870538676122294	9.543267848481207	9.128857328167442	8.499560754279116	8.048057340545313	7.904295996886788	8.03662879150437	8.366779266630942	8.548951672884357	8.758561401449015	9.060971984752939	9.095919920403105	9.128855348984757	9.016397665280863	9.09723398805761	9.202538786789432	8.742897493515216	7.919045919938185	7.03776535024673	6.533334419950961	6.740307874557118	7.422559415869955	7.155448915768716	7.319441017204667	7.329641861845289	7.312772128276606	7.406784605761231	7.220805400021959	7.293612684581092	7.327334678718216	7.315123618996154	7.507189666852071	7.324579621065311	7.153003391537766	7.171752322134864	7.28472057275485	7.553524674533833	7.431250658818044	7.383561261338855	7.34199663412204	6.982853216970227	6.715732499621708	6.496330045517595	6.453173334895325	6.135320841213684	6.000818275030156	5.81947851306154	5.430872687092233	4.984579962229702
1.300663570161475	1.180971571803639	1.136382961639583	1.039662737725848	0.7883775486801596	0.7549301138981832	0.5171854614715699	0.3889045548149852	0.2396226784501891	-0.1564540504668344	-0.2431093768465189	-0.3995937835217092	-0.4459682052800531	-0.4078124476193352	-0.4300530502291053	-0.3344362091588096	-0.5052474402272651	-0.8722171294090799	-0.9712299576460737	-1.115012312838076	-1.188987180000993	-1.0940798726769	-1.017074255115801	-0.8293138956908592	-0.7211992263545426	-0.6916956715919582	-0.7148425005366335	-0.6285255837112231	-0.3602801690711317	-0.6839761528186159	-0.8997602540684966	-1.051938391579768	-1.36539882407061	-1.539428393654248	-1.776697182874898	-2.139081107847517	-2.34149680840062	-2.757766951413146	-3.198654631836519	-3.26850586078632	-3.117162152748278	-2.368988110392763	-3.436533795852938	-3.713233629540014	-3.632717043417813	-3.707671046552889	-3.684918113351841	-3.37018185918032	-3.30391830782321	-3.166038984585612	-3.043606828112729	-2.803188276570154	-2.528871493447525	-2.38263869243292	-2.015986144966746	-1.756620833117722	-1.600281432236045	-1.264854910705992	-1.066814657719476	-1.014684804775925	-0.6561053600510149	-0.346039479173271	0.05424229985641205	0.1692350132973388	0.2508281550489073	0.5983090067155103	0.8306247304123531	1.208956731075261	1.446158426302361	1.405694009914441	1.248253217305546	1.137367161036707	1.40552736438309	2.03865144630231	2.890389955221281	3.380887030193435	3.99660660004065	4.53487561781867	5.226398494567945	6.072205359203792	7.250942798644928	7.563505182635481	7.454245659257765	7.774150019976673	7.901124153916783	8.215839973593802	8.630201447047796	8.808490301868517	8.953118717821269	9.225551620836768	9.257520146979971	8.440495278660535	8.272096219401874	8.40562752449614	8.714885803114782	8.880946107467594	9.219374720420774	9.406081227608581	9.292774495617834	9.27872656323575	9.135300688251959	9.099012987429262	9.022606902869597	8.791764804567492	8.759514095110774	8.477109868177934	8.693623333809285	9.191784740660125	9.036002846019016	9.369448021138453	9.48154771561417	9.523172090647563	9.516023516855057	9.325116569129989	8.833938479447568	8.031122256941785	7.082524585782494	7.007313513213035	7.222533898341339	7.368443973131491	7.7797274344789	7.905207506879833	8.202926936491849	8.349697968674832	8.377296004417644	8.570547983312622	8.502796741623001	8.443365408215641	7.97528744215731	7.216369571966482	6.631111006470007	5.921900832125914	5.679444612989244	7.594732313092038	6.253000230627265	5.871456818218576	5.740562618777176	5.913275151750781	5.982574919588842	5.649041242698445	5.486715311903652	5.207411522688233	4.98771175754041	5.285786231806981	5.37995182479699	5.32859535411211	5.625281968190507	5.763140810287382	5.987081695075858	6.020031070526159	5.815744300438837	6.009361819016931	5.831664873276168	5.465170074016953	5.102475955611339	4.952969930451445	4.727305831516219	4.413083574624807	4.255730262207521	4.223986298833267	3.952940003291303
2.892225490324392	3.027479290937322	3.038135243555814	3.178018595120022	3.093325270306252	3.151162088344961	3.086597678608769	2.819544335079172	2.684430816272481	2.317634954871721	2.017676252944113	1.73843902567944	1.313418867561268	1.155710813440919	1.064580533815104	1.12050110667019	1.189910018782768	0.9904363357584316	0.937884553825711	0.9767121969490518	0.6440934599644947	0.4241667000845268	0.1787182608678677	0.05577989074907919	0.1356942341254808	-0.04668563917653046	0.02804016315798208	0.02505899284449242	0.1017019203533778	0.3354716951150749	0.3074630587560705	0.3252354504005552	0.09970060580633344	-0.178352706705823	-0.191032632661063	-0.3244344539291433	-0.4765116732966703	-0.6286656466919567	-0.8142206739764219	-1.008505538177587	-1.217075524438826	-1.527765797541804	-1.63586125992839	-1.796734575211758	-1.89735910948059	-1.967186174314463	-2.274636238854214	-2.407780759552793	-2.54900739582132	-2.642775153824175	-2.193965539650776	-1.89093885633099	-1.674014325769235	-1.293891857253413	-1.248789224639268	-0.9106701777398598	-0.7690964431221232	-0.5714077829500184	-0.5458526030659527	-0.7065103201126703	-0.4673250310532353	-0.08560959914115074	0.2703247684554526	0.6230845842789563	0.5783053733385941	0.7120959952890757	0.9466957979207109	1.18651474668934	1.600900106477752	1.661665504093151	1.414280385198595	1.519847397063813	1.585942264338826	1.760595253258373	1.978315362204398	2.418782271410635	3.065204138457204	3.523862727500216	4.313645089697047	5.294137983986673	8.399824205991081	7.091623265100679	6.63045837336557	6.713808089047461	7.100766019344292	7.570577760997878	7.861667643905037	8.10411501157563	8.304247375289492	8.47239863259756	8.444907237349696	7.608336608159163	7.155847271569996	7.245031165231296	7.573624750183455	7.857837144548853	8.116914713745871	8.410535271469826	8.399621880386746	8.33851411079462	8.383252037069838	8.13469405401446	8.100874545277406	7.827106465225597	7.523940753155614	7.250408983616182	7.41573023877703	7.834152265503633	7.57731695648971	8.000496003357114	8.483667410660246	8.508458450599562	8.33683312964655	8.203368847123329	7.74599233458548	7.037819029824504	6.277383677724288	6.009923878876521	6.259595044696084	5.913059040878807	6.043352987040805	6.180416460412459	6.403563458675421	6.920113725391957	6.97725349582953	7.232079030986768	7.515247512580686	7.400362644053018	6.830844409453846	5.751279284136785	5.002190210626623	4.514600053192055	3.809537403395609	3.376694421393609	3.165692615526268	4.108382156012851	4.416632663204496	3.695046568795419	3.640689374118381	3.727698795389529	3.732480534384194	3.423298568946677	3.095957010967595	3.098187362869623	3.074378747677372	2.874562181715703	3.105330929533807	3.413656106344092	3.625801653424446	4.051393196529432	4.277469098796757	4.294725591591089	4.205083185136402	3.744769589109808	3.508106935269268	3.229517613840187	2.953306061381625	2.874783238042539	2.786753905050659	2.796950278352369	2.842464830717404
4.64947663955661	4.798510461359626	4.872162882123519	5.024406307394429	5.150480331982067	5.162936645272737	5.304362454730494	5.082221258632558	4.83249071436785	4.608648593541375	4.05030540677069	3.855375717500067	3.028461517932726	2.316822769857652	2.217255817447722	2.291219218342633	2.325583005457702	2.44899768162054	2.460863797516367	2.589941117945443	2.531644978939084	2.270213666992674	2.147697412395814	1.848784870661348	1.761123186931911	1.42860388589105	1.081027236653597	1.018455711359934	0.8958746799637538	0.9069113235524924	1.000026587961941	0.9247538911756124	0.951323468385624	0.9132309140755979	0.8636975792716157	0.9145836065809476	0.701107748381844	0.5787519302602391	0.2955021535270248	-0.05499174691419739	-0.1591022056374527	-0.369078470294653	-0.4685593780668	-0.5023666532700304	-0.6725271037017819	-0.814344607696853	-1.188487729033113	-1.596808576994761	-1.548709367299807	-0.9752144464166577	-0.448297336339806	-0.4560983339531504	-0.593533694747066	-0.4565542497269348	-0.2425341812721058	0.1234472678601151	0.7407212047066309	0.2558227392972299	0.04198189697774524	0.02427792050536937	0.1078989302718583	0.4677430297037972	0.558706016198812	0.647395628446418	0.7458295430592443	0.9480414847091652	1.383590544749097	1.615491590691022	1.852869685548683	2.248926490931865	2.257131927955129	2.406189657568689	2.619757492846702	2.677469366899231	2.689765474849651	2.711545017986907	2.89045289057691	3.144462669160873	3.396717843454837	3.823022141011108	4.089594524660356	4.74192753337303	5.481378642492189	5.857391697445109	6.271435357238488	6.68398231552078	6.869111220258503	7.276598588888305	7.494386926473794	7.683681773966896	7.590918751605727	6.977903892365475	6.546301725382364	6.402030253951864	6.605545446705662	7.007780979694303	7.272372341360722	7.616070513091813	7.857648397981166	7.896479446298486	7.950607117724473	7.789845771176374	7.715424370098674	7.068178984662268	6.514896498669714	6.256566180003574	8.369246110050312	7.588393544657436	6.391274357039947	6.632409623790579	6.861975158657856	6.42429020152673	5.976196075016787	5.937244276648869	5.738430130784536	5.551942279473224	5.428286683564181	5.130689323515753	5.158658969277553	5.126617626737186	4.755683460013358	4.780714864514437	4.831246356085785	5.095871565028403	5.408342506405006	5.684313113947098	6.200984408873921	6.367394406551625	6.031121082506559	5.277804463500502	5.093544717494353	4.829898666378313	3.231570482514257	2.31106151651187	1.848392555649411	1.433572291620635	1.583803996520942	2.323502466744003	1.848519188557134	1.756585591856663	2.042017440109589	1.934949741184596	1.920681414799219	1.893547913836926	2.05428653220099	2.071696742709833	2.225955823938079	2.537986509366419	2.54406181630452	2.631182650747917	2.776097743207799	2.86887973971784	3.231686266002839	2.798975687230325	2.237275502224406	1.962261255824046	1.708485771844039	1.626435321717508	1.743490583794085	1.789944539438466	2.09854216810561
6.012582712865992	6.102158095477819	6.230926127634746	6.292967323841253	6.52918511249959	6.604637893935603	6.638937716119699	6.64112748050843	6.34214344321407	6.054836496925759	5.445816905242225	4.746171486772425	4.108067327610911	3.4654946561825	3.048123308012691	2.894963301695384	2.830597763846811	3.135201008641729	3.396715541143635	3.47976908207761	3.598913028211541	3.525516566134684	3.581217069414208	3.505344492072595	3.219105088585081	2.984329467434009	2.689413906591369	2.548395479467047	2.604289108726221	2.483012742511107	2.399120741989805	2.269556554787755	2.048204496094911	2.143118638976773	2.084114055873613	1.996746416267342	1.90633021187756	1.654117389150315	1.656684670450773	1.427313188578182	1.147618376807145	1.046493397926895	0.7218248359835684	0.5962634684433965	0.3369353644620787	-0.09930483221427266	-0.3614973878283649	-0.7280068505036752	-0.7194749576343611	-0.3457212834136953	-0.2572537103818604	0.1259096093972403	0.3050336143106165	0.4535979425012897	0.7304855277120055	1.312659177799901	1.342676638630451	1.227944261922801	1.118047141583645	1.281401300154187	1.329330945776405	1.330165492834851	1.486449036884153	1.598607810925614	1.895280039369311	2.190971371859689	2.447707847517165	2.870612589684697	3.092062973573888	3.374924183182145	3.62024900124112	3.750795545498534	4.014054140615428	4.170283402894086	4.254875301025834	4.077948173015557	3.901074724566683	3.928476901496083	3.890828610537312	3.9754324858975	4.28937005777675	4.663039122913005	5.231036770044966	8.28797738139798	7.93495593355243	7.835167173061791	7.048881555154139	6.910834892139292	7.32569949885135	7.318869667384718	7.376681857371636	6.916566299888416	6.191442617749829	5.789432900623183	5.652280764496084	6.063259803488791	6.478295943913849	6.596807943673582	6.624823068036449	6.607166005718511	6.503274874853332	6.281891562209694	6.286354329771598	5.515708402399071	4.978531509205538	4.56192596766914	3.82838639314474	2.871690089725519	2.317678169579153	2.402604400089729	2.60022260770512	3.239922071355466	2.703047145464268	2.825907116720941	3.221632994919048	3.452975815992318	3.848810535513337	4.10221950690493	4.078223233860058	3.984267446930346	3.828751772825626	3.712557699655406	3.897130463933536	3.929978158046538	4.118276331350387	4.319155737586016	4.671867573109921	4.908378222949239	4.545712856795546	3.729965987842604	3.011281298278902	2.759089696743956	1.961072381631766	1.007713428651584	0.2232366501582987	-0.03028913200336092	-0.2059991001942194	0.04642172239658748	0.1484099531159586	0.1298052399117182	0.1485863746009386	-0.02917928519144652	0.1782998745222244	0.4728956524422756	0.6654986127101097	0.8923851765264885	1.082254118750825	1.067181086383528	1.138319048097173	0.8886470241413917	0.9020242973336963	1.136338604734874	2.415839816407129	2.026491003993669	1.071032572669822	0.879682589516392	0.9332961005973743	0.9435629966066017	1.149836324873547	1.283827532046644	1.342437338180616
6.945895320982117	6.822425230824933	6.73982712267474	6.686605054276299	6.601790215840026	6.8240712083321	6.785735834407944	6.738154818009434	6.610410823764767	6.337402668624009	6.075170426963609	5.704874276949852	5.292907879926588	5.216457014295997	4.604899704607192	4.193224779857587	3.879646610012173	3.8320865836709	4.001848506035742	4.024536501453156	3.906740430581749	3.94606972476339	3.859253754277688	3.863814244448406	3.637857401129395	3.453418778964135	3.496893905834554	3.387868772003571	3.438943778381201	3.365032600396205	3.180733424648963	3.116876649169512	3.137941353877011	3.136840079772071	3.334589579491194	3.286707753562496	3.135669583077231	3.021759357706628	2.878451500317794	2.715045332946602	2.487495804012724	2.415653174848558	2.338695794270564	1.978001211376409	1.633637827105986	1.378842619640693	1.095297501503978	0.9172097428664756	0.5620809401444262	0.6548450991797381	0.9431013671151618	1.094617605653923	1.282744501549928	1.297704823842878	1.474441654406803	1.776272028456106	1.913074588433574	2.133762570883107	2.212416105971101	2.117127876919767	2.438730916973611	2.50915031063613	2.638911378987586	2.773894557875849	2.804043541945362	3.211429019579043	3.400566814314402	3.678113705550231	4.095605783050871	4.199523974687509	4.360846605772338	4.448982973837758	4.591039129437775	4.96346207487187	5.12861747410534	4.969346319966576	4.571030736438672	4.305170783191329	4.338657719909065	4.245737042581027	4.01181649340657	5.509499987492291	8.211122886002499	5.658981918240215	5.573435304935799	5.714253541794164	5.855512312382189	5.931204809524559	6.326523655365406	6.714534093972816	6.875513333203799	6.679127091169505	6.042057948317051	5.442116750579203	5.108839935492426	5.151250715096978	5.436041514548492	5.409581035344786	5.379944522168046	5.490902398802859	5.472999620593612	5.265397811339938	4.958902464379378	4.47304198392527	4.016815446001544	3.507682103791922	2.890873189596903	2.353946276003001	1.474895342491322	1.123955510344558	1.1689812494227	0.9783212240357102	0.9050043189711801	0.9079528468048466	1.239827045372976	1.73941989152371	2.047376471389157	2.271165169337507	2.523427247311815	2.508872916779353	2.612693317684545	2.560398372385521	2.637072923253413	2.723616281276122	2.690472319501055	2.992711973329392	3.251216675717785	3.444414489639087	3.404381062093648	2.60861425642122	1.763558696365408	1.099397058609327	0.3371200380823893	-0.30781682652173	-0.8042799267618648	-1.051774628696649	-1.055209978322694	-1.020872625887023	-1.085943134516015	-1.157548342042048	-1.026170402483615	-0.8358361602044511	-0.8960422895695501	-0.595803767790585	-0.2552105517622181	-0.09514451393192758	0.0570943467074585	0.0118837531393865	-0.2009396110880743	-0.3125669404660698	-0.2820494989597933	0.2132816981132351	0.5864695701901042	0.4577493110804198	0.347424955024735	0.1112117548807987	0.1322331817627287	0.2486389377718297	0.3204041182154356	0.6083277204606929	0.7219227043984802
7.278905154317727	7.213134149941311	6.881452361183676	6.896651612484845	6.997286667330684	7.012593277754661	7.249225258755871	7.126425571861489	7.115671622924935	7.004733140187568	6.767649392782857	6.745689491665019	6.642017713828125	6.617323794666675	6.483017068279196	5.928825669764421	5.674108630404248	5.595635852325984	5.231359685301356	5.133361046759489	4.710160664309115	4.48361443546338	4.680161000013072	4.682744244468893	4.468759138488451	4.082642034419962	4.049348109721905	4.05718406980975	3.893276368177453	3.954568507603767	3.862973532160538	3.723899568385093	3.801886686137209	3.838076087690183	3.98902513517794	3.973136602542468	3.783049885188802	3.860918546580024	3.757871693405093	3.650228858773801	3.67801198297883	3.501886225907356	3.324134815935224	2.976187160916083	2.503902525080946	2.391543770432577	2.097624744270945	1.735554488075934	1.566006012225102	1.65227221591698	2.056872290013644	2.170371592799256	2.09120005378486	2.239038121880128	2.476574800369917	2.792315629198697	2.907633710864275	3.029206996381731	3.411761910217194	3.680181824998442	4.089582983759442	4.466874084725248	4.507466017327374	4.769513754095783	5.12035744153269	5.321672679024005	5.509608418580854	5.385904543114464	5.308241080630296	5.254527324143851	5.122718258641271	5.166508697473546	5.308523360399477	5.463509074825424	5.804168806158316	5.673016474831172	5.579507894176345	5.366309029323702	5.147223186920883	5.06420954250126	5.768036845783797	7.552960309786215	5.685724325694196	4.792628959111823	5.099466610683237	5.094925514409965	5.047811511401335	5.263614889751636	5.520809020066281	6.025679070392528	6.303388969953062	6.170903337989898	5.790976614327519	5.222899758493611	4.656169060514969	4.317738965740148	4.312885684917489	4.43428651008486	4.421143926075104	4.337915841190977	4.497714015300573	4.294978277169548	4.608211459001495	4.091051372642028	3.463242421341818	3.182187040910776	2.464970951490045	2.064151497233183	1.619982463504755	1.052896396443771	0.7268993531355932	0.3302995211955704	-0.06275901486969815	-0.02432957742917097	0.1939621711958353	0.7243877481350296	1.157471650639877	1.186170245143614	1.433612218036615	1.533980263982244	1.500837994065762	1.594338166507612	1.8298526762444	1.595105504393814	1.629736623171311	1.58523785741761	1.654464162083684	1.316207361003251	0.5513485579475628	-0.7280778454544929	-2.025536372208705	-2.652794188475013	-3.076682003488713	-3.193860841742321	-3.093717731289814	-3.189217273393183	-2.807759396327754	-2.953012783210454	-2.981309903939064	-2.994698737926853	-2.982716436233773	-2.654596884355442	-2.461923401380034	-2.24969197064604	-1.885887495602674	-1.731547186979299	-1.635796436975056	-1.60031457805195	-1.64628669306893	-1.52208711970502	-1.213374091938761	-0.8985362939100128	-0.4507270600430502	-0.5223944725188971	-0.596590197621083	-0.6530377410159645	-0.7089128348919758	-0.5270575699390747	-0.3452790590139898	-0.152594201019383	0.188303554160882
7.648043643169956	7.596312044962247	7.455377531851411	7.359705276786656	7.589343606953321	7.491325670213087	7.504062475336752	8.891243547872591	8.630243873624067	8.301352354321011	7.924203691749597	7.811654707398986	7.714400863957167	7.33986924526846	6.974948530955658	6.602074652462534	6.138445995793461	6.111601212794881	5.824529881948024	5.349954658076342	5.060536163354186	4.729060567454098	4.748599867073096	4.698182617207067	4.619013974469794	4.905972737209481	4.897696873178006	4.838193537322297	4.736376679709963	4.564085984854955	4.536391619482799	4.370666228620109	4.3058789698282	4.450661754379382	4.481568924854741	4.626976356286434	4.392284324721004	4.244965331941046	4.267305186384135	4.156908433301737	4.017889238737325	4.188550831688929	4.015278638671191	3.953795763032531	3.650298129448743	3.254108482448601	2.95730658644635	2.510589386330309	2.358825835740504	2.452672018531928	2.647196948415399	2.920830170563534	2.977506705907388	3.250860433010303	3.708078410968881	3.823691138966865	4.006784301185235	4.232817114240561	4.721639839465411	5.283369332664563	5.459832414091238	5.579772123529096	6.130037761768051	8.356107064452999	7.332260768586423	6.621966766317655	6.466263366237627	6.426612090386243	6.167420653342788	5.933729303369716	5.728898187590744	5.565196956597504	5.659118688998319	5.583491897698877	5.790160768965848	5.963038767775572	5.737863416463824	5.681439806049866	5.60453103148518	5.441262201383495	5.482266032260441	5.07458160077698	4.838748190136585	4.798277937006787	4.908734489039603	5.129041641010474	4.91732045725206	4.772823287134941	4.740760191343725	5.011401168241719	5.619364478184082	5.651660944401328	5.115523702299242	4.771908240541336	4.187182162764088	3.737235804676345	3.494406449133351	3.201771051449384	3.181742175728118	3.138904046447351	3.220511739305209	3.163443649725536	2.636500732726745	2.352195738353544	2.149582510632627	1.855310362810428	1.687811090935611	1.24806907680005	0.913012196027239	0.5973828294235659	0.1428197776037905	-0.1870395492986177	-0.5989976070880516	-1.113852624455433	-0.7958799606997218	-0.6987384542300674	-0.0348656463692123	0.6459831170624284	0.07249535654312922	0.2264301150091228	0.2543455957973038	0.1902153023160054	-0.09125704993795125	-0.1161395321130385	-0.1130688864193417	-0.7055547246160927	-1.795171563791996	-2.471383267976421	-2.719207760800202	-2.635650577691536	-3.62416824611239	-4.421327661093528	-4.92586048035713	-5.266417206730637	-5.304917581761686	-4.982198115112396	-4.892323035761763	-4.562390543773404	-4.279424198959475	-4.282649579459985	-4.178736785799344	-4.014834596102901	-3.633094652142631	-3.414185902034887	-3.142262988517928	-2.85517388548152	-2.738279545292357	-2.632956419186485	-2.446976101943051	-2.264171818672878	-1.970612793538635	-1.712264588344908	-1.46832897440089	-1.344211113844096	-1.409147527384619	-1.431403675066861	-1.352076933731439	-1.323719761441282	-0.8780815014781069	-0.7311654845995008	-0.6623447767370862
8.891509640654533	8.346169919134752	8.078477681363609	8.14513448368092	8.10476195315988	8.966323190882633	8.351501023102628	8.241796589977127	8.302134893843231	8.198351007762881	8.292510789181392	8.210922004808879	8.027082500005406	7.866032138694891	7.359370141153306	7.050137487752465	6.704530487506759	6.449400252591602	6.272213300836711	5.915917636167251	5.657072487254993	5.552383857039842	5.570074862333229	5.487969670193934	5.515068838845991	5.721382597335776	5.83423063407264	5.529906424459227	5.252892067967309	5.233628144058912	5.030607328417886	5.021010952846893	4.849228140370485	4.827467991130902	4.875126993552215	4.884604847477249	4.917258699063495	4.834098219133409	4.779409637029346	4.822300522072112	4.774307677549587	4.732439603289663	4.731314559647274	4.758274559662766	4.659474666979236	4.092090942970515	3.722911753638869	3.501171753156484	3.127837116098192	3.150986820222158	3.255309521041056	3.363690805492354	3.549499567546491	3.572475653548338	3.920373988413473	4.272977146057826	4.491810602861506	5.111520159086467	5.48391757500184	5.67178290864814	5.892253995580802	6.635666270703382	7.608155821765934	6.664429528871551	6.715382697199004	6.994120663172737	6.811122561258401	6.672870911832604	6.489720784062627	6.253019095059472	6.206770035370482	5.896547426541133	5.692170513579185	5.784943870362838	5.814993813067076	5.98770285001325	6.096913282343849	5.903527001108102	5.83975349078645	5.582147093960089	5.281192599862322	5.093060516458195	4.710963630760432	4.637126102895365	4.751030260767379	4.705072071142979	4.624679734314213	4.190796386701834	3.912877841637851	4.069161178056504	4.540161817177136	4.730136197558807	4.243433294716567	3.814134831322747	3.452190815159554	2.93477620973897	2.691002701796151	2.382824965111979	2.096920566363281	2.384722701632484	2.232617126619743	1.918455548291035	1.436811632891988	0.9070395256142092	0.7042558538298636	0.3515583601316621	0.1572787097802575	0.1773506795789785	-0.01759680218566473	0.081248803071162	-0.2053024370336516	-0.5899705421091426	-1.060613330753313	-1.778955113875327	-1.967636896759586	-1.718887084626601	-1.043041057227299	-0.2466236781706357	-0.6652749016921007	-0.7061738260919697	-0.4145275476549273	-0.4408513599206003	-0.5505648991674548	-0.7604629722152367	-1.006733909907723	-1.242488319098584	-2.2866772052854	-3.220886540144591	-3.682141877705874	-4.12526069719172	-4.794893428296461	-5.52828266679569	-5.754101129841956	-5.900295495065905	-6.17470427598704	-6.206085315714745	-6.145184270660479	-5.858566096789957	-5.5711190528217	-5.430486550822081	-5.323643439079774	-5.165207593611512	-4.875865016735361	-4.4757691801953	-4.182315822325279	-4.05905722730256	-3.588400304463505	-3.491771753920375	-3.235563315326033	-2.91032257923888	-2.697149173375919	-2.378903779982124	-2.361319347113579	-2.203398427212335	-1.84352893574146	-2.054288290609691	-2.000319015867831	-1.942808445250989	-1.837967947757988	-1.380562173673411	-1.129648755253072
9.163172803689008	9.140295208355155	9.124705910188254	9.276706308214443	9.301394950269241	9.467841509039999	9.717786636114681	9.907978677665824	9.970731494056054	9.765763760013726	9.498331996870832	10.32051904374725	9.544773401909993	8.868414028870916	8.542034975835918	8.064322153403509	7.859343322123436	7.6323319100199	7.314177383372453	7.182343112778938	7.033641727937493	7.134683931937673	7.109577906870697	6.89735632514703	7.040799299960383	7.124229804271408	7.178393110153593	7.175128902121116	6.86707136030293	6.953689875815598	6.935732099288373	6.893155303150195	6.889514735978196	6.644633119197579	6.613845219788288	6.651957702082655	6.554366212695243	6.488861706636726	6.432713166575184	6.438618726979882	6.535387906883159	6.331885944829082	6.208781788933663	5.950876321082319	5.82129262805114	5.985758442620579	5.870878813112824	5.482336493860942	5.179489363132461	4.944512485192092	4.942099017305338	4.940512937316498	4.991684600157782	5.118346505361103	5.242736518517006	5.66066023371576	5.971035846118923	6.214684622571724	6.589238648232367	6.739473900293717	6.995425896832955	7.859833121334532	9.845507087654596	8.260013453824229	7.732622614003276	7.671339490243042	7.72352205192368	7.483959085346441	7.387056695210958	7.151992845995721	6.74660528254384	6.45055251347253	6.130913818105398	5.87358860818324	6.011456743349356	6.129485953511846	6.453081785146367	6.240536597207722	5.908561992249702	5.920498098794667	5.560600971063195	5.478606265459234	5.183015020174764	4.730017432592149	4.679056506935524	4.523004965881228	4.343108113552489	3.958141817442538	3.514454046924243	3.314569208135879	3.781653884100933	3.796690150581753	3.273259825880416	2.707775364401016	2.387900636303073	2.240136314026643	1.837957149624344	1.439190329707458	0.9509597277087778	0.8332497716260718	1.044595919866936	0.5248799069534584	-0.396894360152487	-1.01028031803628	-1.204578386595358	-1.007173690779325	-0.9800912270000026	-0.9532144686378956	-0.8934740542106852	-0.7632813948075068	-0.7060170956449952	-0.9992719965104016	-1.458070517005467	-1.877806821544652	-2.083579842301788	-2.176143598196745	-1.188903671665571	-1.446054707902817	-2.076976213657019	-1.888246795205418	-1.677245521018278	-1.560098304952248	-1.597904390385963	-1.369175044558119	-1.45634515620327	-2.278065045316225	-2.8053470904606	-3.34652592129703	-3.755249121852898	-4.295545403030019	-5.14489634264271	-5.905323862397381	-6.548021407661395	-6.858304183677717	-6.831137157460319	-6.38965937212572	-6.781159811569808	-6.862980945697927	-6.547672981696792	-6.11605647288809	-6.024496315167255	-5.92926591018221	-5.698350161381939	-5.466088254726458	-5.270846934062718	-5.012513973017974	-4.777249650511635	-4.452414186800468	-4.096137978907109	-3.53222748071164	-3.373991804411389	-3.327824940535208	-3.116392469874825	-2.904390514095439	-2.568199156756179	-2.368876780202982	-2.342074738105907	-2.508976631124028	-2.339977620781099	-2.05363549011571	-1.568701970604877
9.585283734445227	9.763098975940693	9.745401998469617	9.652322137759313	9.669995536713145	9.684882720261839	9.761825486476653	9.826808702240101	9.800780719249019	9.804902484345973	9.933083217413582	10.15987651094292	11.51194293256157	10.57758592884761	9.392301699321138	9.047465140491397	8.862986624649068	8.933417164223897	8.865299390550661	8.768172321227325	8.906709424102814	8.744198712284685	8.655371441176896	8.447888461386469	8.323515713531719	8.298919053043051	8.192610515835668	8.241103254272275	8.284095869326791	8.169940044861903	8.229185622312514	8.150143753693669	8.141552647851029	8.130046375213908	7.908170312031075	7.902454152849828	7.904801481371749	7.74522027576711	7.844681981039912	7.74436866049632	7.684282565012836	7.50334414062695	7.189799542304684	6.961434326948279	6.809334544490014	6.848591533271815	6.914900472396198	6.658977996168119	6.543261573383404	6.314572196248946	6.084516551192621	6.024893461695797	5.937421639053639	6.037433599369649	6.351149458488976	6.521022586395475	6.829163050304828	7.008700762148749	7.189068826290452	7.489490954331814	7.602924994906004	7.684121508495423	8.235298726427061	9.819390233638217	9.033228054806045	8.339863766313556	7.952434746244705	7.800151128417269	7.435563449203073	7.270600252149393	6.954171369909318	6.499711462178652	6.145027641814067	5.843744839026897	5.829794213992329	5.936803276982857	6.012218087735846	6.0622401705416	5.718600661464848	5.489977218901686	5.469890726366771	5.187898353521405	4.715817131063716	4.376320490275987	3.982368146329406	4.206428255159494	4.028170724818665	3.651301695565735	2.935407926340247	2.455955002049791	2.478904422236894	2.06194909654198	1.107044467422384	0.6467932418173064	0.3586539042337336	0.4908949342687379	0.3404318553025405	-0.3571508977346411	-0.9266697787304565	-1.344357712637986	-1.404961142525394	-1.599977548000709	-2.268873684965911	-2.505892029857534	-2.577130444607462	-2.571457187311978	-2.29020411509822	-2.294628444841351	-2.234152850351961	-1.984775007620897	-1.890220032800585	-1.824803305019543	-2.091693987363158	-2.549705130434518	-2.776832195914153	-2.916971594576751	-2.189279679793117	-1.97977193305843	-3.142665341571899	-3.009648843219225	-3.017635181112894	-2.971701731471796	-2.998569172881957	-3.168504154968787	-3.335673031716965	-3.690863089247443	-4.018614342266915	-4.14519221425337	-4.313179466070721	-4.815796735221795	-5.496877960340555	-6.359003651415151	-7.007554395075431	-7.471335263754611	-7.631635387008373	-6.98584967934147	-7.537950913264694	-7.899728469263096	-7.650468805111473	-7.348968685887087	-6.983087412387817	-6.761695109248365	-6.533662230288655	-6.192935892024423	-5.929531154439871	-5.804803681492785	-5.661420920512796	-5.395271669856129	-4.456984473470811	-4.340695365166653	-4.3881430748404	-4.498573583572295	-4.335234043437197	-3.978985868789607	-3.650715378676807	-3.518215010309575	-3.54376722338742	-3.731765258349299	-3.464764665337725	-2.853725891633928	-2.664636494487638
9.995212497888417	10.0195311289209	10.19955665972321	10.09506831547304	10.10882723347117	10.26111287245078	10.25599068693231	10.22560472485588	10.28091395130298	10.20025833888957	10.25554597307013	10.07837755632011	9.986904328093487	11.05661348440509	11.52598309781939	10.36409275825878	10.21690343587454	10.31816522403813	10.70094748423185	10.86109178548816	11.05965206355336	11.1783102309509	11.11592245019284	11.17165149809375	10.97955260012736	10.87185789459045	10.70221348331057	10.49593978680679	10.27525053465359	10.06223791603537	9.790116968840721	9.710775704769105	9.673468467408952	9.573050961801073	9.426184596776352	9.233515611481721	9.222775124001828	9.134068278895143	9.050970398493462	9.058217367633006	8.807173541965199	8.737154072186343	8.387400821962331	7.866290764186658	7.625408700147148	7.569167559699565	7.773132857033886	7.810648910612997	7.731834827118234	7.592234564784746	7.332687597674635	7.102387718926877	7.045618193484017	6.928581259159898	7.015947419403631	7.940531536809374	8.274465251921583	8.418053696842492	7.724660495113653	7.490011440450417	7.680134511644667	7.79900707286032	7.873886779857401	7.874287745540983	7.765204855387992	8.040462642815385	7.971789608673248	7.737183136333726	7.523298138657083	7.01185590700004	6.71347133499961	6.335827927078583	6.001382072773424	5.700059259512045	5.380834756487843	5.496716276871837	5.497042850718174	5.341510498939215	5.278392147731267	5.04068579323723	5.032314617462021	5.053060096459774	4.628862832189384	4.286613755150483	3.910444854264938	3.421305963429234	3.335367261423983	3.155315116319002	2.360457157505493	0.658865225774548	-0.5227558463224682	-1.174974820960529	-1.927765183567715	-2.630771096300236	-2.937421619240013	-3.484926337620038	-3.990653449867523	-4.575249579467652	-4.875873678439063	-4.653813009799535	-4.549631377106664	-4.136676063223319	-4.035099497184547	-3.985784978484901	-3.945975487238286	-3.954163754281126	-3.858572512086937	-3.734897708434744	-3.723548137785656	-3.273993263782984	-2.879153477917839	-2.851626216700595	-2.814873423075539	-3.192192113655608	-3.452813923060205	-3.564189741964015	-3.84459679681089	-4.13799649542392	-4.444001983635189	-4.267236864755262	-4.009556651959315	-4.16181406790804	-4.277204405920713	-4.40416595801662	-4.552903670356898	-4.585074935111038	-4.884966750297565	-5.061960160018145	-4.859781323133802	-5.271373724442924	-5.752535821068818	-6.611473291282664	-7.663984263022542	-8.275707939221093	-8.721779154467242	-8.238014188762691	-7.022436428033757	-8.578579530154855	-8.505033170440413	-8.218169766090625	-7.936807967322807	-7.750849125548882	-7.676959096198971	-7.529258156949084	-7.296506786122961	-7.217933526260197	-6.809917307905664	-6.366584392687741	-5.840784520281034	-4.880784248591681	-4.672510968758388	-4.903499160060164	-5.069073103771984	-5.149596615907285	-4.753808948020662	-4.61450230889011	-4.400999387891375	-4.416204034331201	-4.319751279181219	-3.794263591324068	-3.600179171665786
10.84997171126054	10.7599312196138	10.59670594714737	10.76150220348961	10.83567263304553	10.75837885961482	10.73074058466938	10.48808434036022	10.4260641155721	10.3795984166714	10.23656771607261	10.26900460401953	10.14739381459208	10.20745213800075	10.42089327177018	10.41027353471912	10.60999903154732	10.79970369536522	11.00315460121914	11.33647766296593	11.53189865061159	11.80332568617695	11.9424059327846	11.98156103057005	12.12178172961575	12.20341287004226	12.00298614061461	11.7917619054403	11.39019240007457	11.23772024440365	10.92189960712284	10.65573446832707	10.59487656602494	10.3413493041225	10.32542344965941	9.988041370380017	9.537429916171845	9.404375659632251	9.372001632384524	9.360349079799789	9.276930211678803	9.170444187219402	9.09837071769789	8.754961612240891	8.775871628409675	9.252036693130776	8.62357631479739	8.469103027076983	8.423832617948108	8.300984187560516	8.279589694801246	8.109056570664279	7.887810298060913	7.731206046910984	7.407246927880522	7.744832472049154	7.721307015860418	7.545929020316976	7.619778808057617	7.575875546841132	7.755624710010466	7.847976277728208	7.824645429718828	7.897859473341043	7.69224387844389	7.560569627035989	7.631101849976289	7.577683946269019	7.491898081987586	7.382010485852788	6.839449797041539	6.458796050090484	5.971111488101258	5.512933399453061	5.114098467693793	4.807805005695286	5.04111710511711	5.318400466491198	5.238190877410489	4.993469279815429	4.801115606482767	4.7500010799086	4.508929619511207	4.091202486997702	3.702206637288839	3.19377988836078	2.957961143595412	2.691063952149989	1.936468479750147	1.406685994240831	-0.08214767328644257	-1.302634661300999	-1.943603409575132	-2.628565012068123	-3.060682263574279	-3.361895748072413	-3.927211733100307	-4.516887352760421	-5.016347074268594	-5.317473309710351	-5.415229543899443	-5.339581411773167	-5.471073356657996	-5.469592383504789	-5.328293693276009	-5.078306447813702	-4.974231084594066	-4.985839619301657	-4.814615514268667	-4.624350749234679	-4.360143158511448	-4.399566856869512	-4.443716970273272	-4.427747254051894	-4.512089540820796	-4.547553001840697	-4.538784333729723	-4.914248984075982	-5.159454624361388	-5.412614911027106	-5.571167541301918	-5.64234565059138	-5.748863531210702	-5.699287657892114	-5.782833764067504	-6.020557981206423	-6.150368833647917	-6.407878296229114	-4.982607379537512	-5.20396979295748	-6.229117022355297	-6.797715242707284	-7.853497420655685	-8.662248435539709	-9.152148292261415	-9.504040197958943	-9.662635132776018	-9.855794648386507	-9.656216824106878	-8.953073128445112	-8.704301931676468	-8.502883736250396	-8.573189513127716	-8.538295833284678	-8.309460425614077	-8.24126255597622	-7.697138878284704	-6.760925582049708	-6.784793596748102	-6.32576353516572	-5.692813301710544	-5.416322925395093	-5.816772181681813	-5.892299189105302	-5.605442827943989	-5.47702886679582	-5.314329819899342	-5.037001560657302	-5.088361179437413	-4.835338875266132	-4.365123573778192
11.06735536649876	11.12310999259296	10.96061841798883	10.7578795082581	10.77065278118232	10.55135833954392	10.48802870045415	10.44955290928772	10.33272390632635	10.49676913624813	10.42564588946249	10.33377809354744	10.13785277554985	9.988741578870929	10.1465972617309	10.10364482545958	10.10014294151188	10.4740065025178	10.74923591079539	11.16376871279078	11.50847095229096	11.61283924850784	11.96307518088491	12.10346009267374	12.14753642334324	12.30030130924649	12.21182514554118	12.19858280361888	12.09561729463604	11.83085516731575	11.7902597877391	11.46385953701616	11.27159424903567	11.05716594664256	10.82276828565631	10.8901720376337	10.76606699251533	10.47822512941889	10.35939439219885	10.038592008943	10.01739441843119	9.855065040283591	9.553541109741104	9.326991616003056	9.240001936561612	9.229535592797333	8.984806396450949	8.718428509049488	8.747392607542508	8.638195246955604	8.361903885666607	8.314172512560162	8.084620000761902	7.825023617798706	7.523629518636199	7.416952337837699	7.40074895796954	7.300250226995047	7.351066637551014	7.402064196858021	7.376001022663957	7.570876364878643	7.639603478026288	7.497317525881272	7.45364413419793	7.303586166623347	7.235348917090505	7.325529510904573	7.048916350028151	6.773130577049642	6.949373103488711	6.393004569900654	5.885000538703821	5.276165734559356	4.816191548947188	4.376294081050958	4.318282767736605	4.676646917970004	4.726859069493571	4.311849019015597	4.16182253652687	3.998418038303384	3.95829731751428	3.681198353966181	3.185206950572933	2.730733768333437	2.178274154712597	1.865738555740336	1.567725871540404	0.8442732300697458	-0.1226141168293111	-1.23463815543488	-2.01993166132587	-2.611800727146658	-3.201161590407821	-3.319507173811701	-3.639953354640852	-4.37447101967507	-4.89851449944041	-5.521836888881069	-6.075611175271376	-6.427433925692412	-5.646107137871411	-5.961655369941752	-6.50139194202211	-6.426990531807348	-6.170402720998993	-6.159576669427622	-5.814914418925525	-5.201779501921067	-5.417229569256335	-5.676287118842026	-6.054387231278781	-6.167629762715933	-6.127233063213453	-6.047643714166099	-5.652173535512304	-5.810153506609254	-6.277188136141945	-6.499904028387107	-6.893074068458191	-7.143066244329873	-7.17367176706523	-7.236774201764092	-7.080229116147905	-7.169058935600674	-6.318235964309508	-6.781298379275427	-7.290421317290168	-7.172746803850146	-7.152544398433804	-7.486993566305784	-8.289639711334814	-9.383900951032615	-10.01709395425581	-10.30534315266095	-10.60490566237058	-10.63793274081848	-10.27460442947347	-9.948167752730967	-9.717003599392797	-9.810913720773726	-9.802594713990004	-9.686233391119458	-9.817313159948071	-9.655632935070116	-9.227030424762404	-8.512904020553492	-8.198382829738648	-7.948909142412163	-7.668639467850539	-7.269477774093843	-6.558569106191044	-6.765116645124579	-6.935699765847687	-6.850598640617477	-6.671794000921977	-6.39618508461615	-6.308726300482078	-6.193311424079411	-6.086627866793378
11.63837267756071	11.41132950461815	11.49939197074565	11.26341473766917	11.03821341807287	10.82611210136594	10.58719514482868	10.57671070728446	10.65514968959815	10.43422018968033	10.48732012360824	10.41918087446572	10.18562547488324	10.05171721127743	9.95247940538826	10.17028447381006	10.32497779178419	10.55206207217515	10.95706846411002	11.12845824260978	11.59389752871004	11.89908613094588	11.94236885287137	12.19741972055931	12.18939821663287	12.34418927869206	12.39931309470802	12.29457456322757	12.33624360948102	12.16043868117265	11.97642268590499	11.85355664917785	11.65285617061318	11.56019504373563	11.48980725479339	11.2631736860576	11.21924380567282	10.98458031872877	10.86377233579367	11.39830749176758	10.91540761252151	10.45955820141853	10.10090140329379	9.738680234827939	9.504265035624655	9.041784061530052	8.91533590658571	8.790619281465013	8.642577597227046	8.641715716859551	8.368741527820418	8.244629439513687	8.202464056238171	7.961429271272038	7.610005006343727	7.279432649667683	7.400239388862474	7.141336483628379	6.913228083429317	6.9007637816743	7.05265798037783	7.018600149329188	7.201087594250396	7.13510233635742	6.944132376301638	6.869857815221565	6.759210389496616	6.862268344775032	6.864754912084209	6.526538889158871	6.230487326534274	6.133673391901993	5.355658500017455	4.890035339226301	4.291807486698474	3.914905004747823	3.780770879011868	3.786325518962201	3.765323904060722	3.666873219289982	3.384664160586794	3.101604639519223	3.017395892275829	2.859224209276704	2.396002771912947	1.795525499594817	1.169654017129574	0.7537409143754985	0.7375418663384039	0.4718340577721278	-0.4506584294528579	-1.456801510837295	-2.160757807290054	-2.721020433985927	-3.207599619971234	-3.565987464725652	-3.548042957841517	-4.051512332541165	-4.57004201983716	-4.957793927114722	-5.802116435704818	-6.784729354764238	-6.436427252434044	-6.149040280331974	-7.167270983566425	-7.418940197832114	-7.260693375619383	-7.075782939432088	-6.928795748962216	-6.653744686450977	-6.991560720207531	-7.785947355276562	-8.112548424022975	-8.488051392984744	-8.333377073951283	-7.984891460679592	-7.671745618737759	-7.463045635246488	-7.639483112138237	-7.883037243548358	-8.094630378619115	-8.585053152209355	-8.707411285081832	-8.811760369068509	-8.712737969602415	-8.43217540868983	-7.464104489311694	-8.175088540180582	-8.745479683437622	-8.69191475240649	-8.589469513426423	-9.116039938387189	-10.14025568768471	-10.81565167948293	-11.03140086448963	-10.84459609981297	-10.85097798249393	-11.11978451544263	-10.947413934282	-11.02144986930546	-11.13935118935808	-11.14210600930772	-11.04340540942917	-10.45302321679185	-10.80941959118104	-10.7468555454351	-10.19932575457841	-9.842013764723561	-9.403267910994884	-8.974544372476998	-8.70167827738436	-8.270521808134561	-8.011497336972752	-7.78497125997427	-7.540437616289751	-7.563234704469778	-6.526120714788874	-6.786616074502717	-7.128566890356524	-6.851727098497577	-6.782156335038962
11.32478052640693	11.26264988523423	11.11583703878665	11.164772721818	10.87571972259173	10.59834529657161	10.43598841926507	10.33504236767754	10.41111576790826	10.08551628591482	9.956830342504816	9.991084434269965	9.774411300222596	9.711635299893487	9.691410614033487	9.910337716685603	10.14546410217218	10.29694285789901	10.63319000640723	10.95412042174007	11.22537226412157	11.57276058801187	11.73161192556222	11.86842920008934	12.10204926902702	12.12594875096556	12.15571361818814	12.08800785958681	11.88356207158887	11.91826807210293	11.74958247909797	11.49931396076346	11.57577449294382	11.29990754124481	11.28360227038064	11.0836675769732	10.82462455498933	10.67840394369932	10.43807137150958	11.1902201581222	10.94340804879675	10.18486823409165	9.874092429754569	9.546707413948411	9.145489895975743	9.100971510054819	8.673122465402628	8.449162191960454	8.255997905753247	8.11042293140099	8.119134909335173	8.013968308793835	8.008448844229406	7.934650680442019	7.496771187741274	7.404996062363011	7.040981159123646	6.574456150474759	6.477547645816117	6.379658245203927	6.536422961629739	6.807428554033095	6.829959961422276	7.167854910660367	6.907737370809741	6.596521310524508	6.404455172213204	6.250679023720977	6.231552161329034	6.119865201309779	5.802588545351909	5.146546534400329	4.444703385378546	4.032904839886442	3.578792772637541	2.987681291013359	2.656260441613369	2.495401099162223	2.343638337729487	2.375997729931157	2.044533695998325	1.783652340630738	1.57642990561925	1.429069397454157	1.140059813895903	0.5815228782537361	0.05571916508722552	-0.3098554564810456	-0.4245259267032679	-0.3890433000992743	-0.9507994542474307	-2.074787792424729	-2.58696371991573	-2.904680631821805	-3.265876074588732	-3.631279162444002	-3.731826151499661	-3.652639780760239	-4.005999033507635	-4.489508454993143	-5.049693238011571	-6.009223849445334	-7.083663168269766	-6.154459924790444	-7.004291962141622	-8.186299493828301	-8.382799417139495	-8.185528907245384	-7.874016039173966	-7.427207645855333	-7.378581554047798	-8.228036352268703	-8.933151241585847	-9.311277695409387	-9.939040378951574	-9.742243092291403	-9.396456235709536	-9.141295205913934	-8.840482099504243	-8.865130121981906	-8.959346357576351	-9.307332678349724	-9.88325434042514	-10.4826314952071	-11.10933861317704	-10.52681190875768	-10.32632190257618	-11.37448566601267	-11.58698185335953	-11.93079173634891	-12.26615127746697	-12.15839646923496	-12.24150421895149	-12.66286003590449	-12.57096232307151	-12.39130175288523	-11.86708423204914	-11.82294796699324	-12.26831826674339	-12.60306425821869	-13.01048070715609	-12.93305888017215	-12.2204459038233	-12.24057145669104	-12.30804852870148	-12.00074511234612	-11.61743416587109	-11.25615728241945	-10.96548318759966	-10.43062078908179	-10.06969867250319	-9.851847061001195	-9.374303335075012	-9.094469930534899	-8.652342729966335	-8.468375890615903	-8.341191808233248	-7.858083784334838	-7.91369877219762	-7.598148357197431	-7.50032981953774
11.17377684217706	11.32951921662169	11.2125045254478	11.09282960585841	10.91417827348175	10.42233842720918	10.21783075868922	10.11309769533551	10.06047465346512	9.83119890387826	9.593062883785592	9.551969353665413	9.576807358892836	9.444754827379597	9.52162610006269	9.499348896659683	9.548943885716085	9.820123630328283	10.09575029494096	10.48535845055221	10.87838043284899	11.30361983206393	11.64430449519358	11.791673559576	11.9357361563961	12.0562157913202	12.03905125492201	12.21944501405403	12.16286053042717	12.08927998116297	12.00322407588988	11.83997700352637	11.74511450730881	11.57009051544503	11.28364543250376	11.15626591425627	10.88568693954289	10.73477517456109	10.61194845323701	10.57623686791965	10.57248479674166	10.74911084230587	10.23704489243363	9.734978183305543	9.137637468573075	8.731655007280494	8.604865964209182	8.274685327618897	8.132762182323177	8.098106162577949	7.922576257975891	7.906629205825027	7.785201719708482	7.730738862254611	7.500654908199465	7.253188034338791	7.020629447218766	6.591524065617136	6.319418062079023	6.177569586402001	6.119738448986197	6.341360114770509	6.416554092754325	6.489864515058855	6.499545899158363	6.186997350105116	5.689528382414778	5.368692012374311	5.18948164326082	5.240509112592008	5.133355049088607	4.536177133021965	3.952743976791567	3.23425012362668	2.808772684747112	2.390841445813294	1.888228001604659	1.796950541357774	1.669818986423309	1.698650751837363	1.480302292731039	1.218217399984894	1.203162188103363	1.069970037496489	0.8303933109983177	0.3826448963738471	-0.141777397583553	-0.6506451656533159	-0.8481557781449851	-0.80082888339183	-0.9128485305774348	-2.051344632239989	-2.819579472965131	-2.927433177395585	-3.087418495575719	-3.264141976614383	-3.610285029964075	-4.03684896393878	-4.160320488856144	-4.273017582493026	-4.321979761001899	-4.923873319304221	-5.852259617608979	-6.763671442542773	-7.606308872762725	-8.347493847554233	-8.779384888998038	-8.870467463284228	-8.544011047118374	-8.170740509633788	-8.126805571518105	-8.517223058540765	-9.303498757665523	-9.636714546257394	-10.13121114762907	-10.41962532197095	-10.2396076908434	-9.995336374630369	-9.88728928225629	-9.617593150800985	-9.571053748240445	-9.497074058969019	-9.943089785997756	-10.57221616561242	-11.03427013679124	-11.14711749630254	-9.724054180271196	-10.57049053136342	-12.07526490658654	-12.32908301504904	-12.7793160022041	-13.12447996622797	-13.38459349867543	-13.49210237569832	-13.30878997645539	-13.09933125099536	-12.77007636441442	-12.57962769386023	-13.07283153915671	-13.60512215707507	-13.70502065956214	-13.839224357864	-13.52295013782094	-12.44450766924791	-12.647914318765	-12.59718710340115	-12.47600616086157	-12.23955124902926	-12.07447283416536	-11.67037306437862	-11.04559268096187	-10.6960253683618	-10.35182922775448	-9.864972510705229	-9.543402992706547	-9.159647458452525	-9.042837284094674	-9.054499428212921	-8.660506860502551	-8.329626043239614	-8.6871778364345
10.95104212832797	10.8176577102559	10.8508284128622	10.78536644494005	10.7417894785853	10.49107243521945	10.20010805672717	9.902352558758821	9.529729983109064	9.210767810015284	9.347191119063211	8.869066517181409	8.873583571001461	8.806980548431966	8.739915399866561	8.906575706058902	8.951223120844475	9.079367621734093	9.252390490901291	9.432053935888746	9.952915666601939	10.34052498423193	10.80233354812998	11.18243023530908	11.20348062656109	11.4483123935882	11.64540430510465	11.6748834459616	11.84560321577709	11.72948353893133	11.68278449594646	11.62025143202862	11.40586434655637	11.35751805840448	11.24205659793409	11.01310637755631	10.90188613166924	10.60897369847976	10.41751520291842	10.16811338788494	10.02726821229606	10.61539741896496	10.81296283149669	9.749861244397778	9.276226422621505	8.687296039286366	8.272671199792455	8.125356982096434	7.928754010016974	7.902324208518166	7.599520773698146	7.485361684340944	7.336509062800928	7.150379434690137	7.015842540305357	6.686956953858328	6.128843547815279	5.987622893077457	6.29197111068811	5.627581970076733	5.396360135432928	5.342417137586096	5.44921755469494	5.574286405668488	5.695532983521844	5.056654425009469	4.276645561061173	3.873873190676932	3.686872387926201	3.749097886259619	3.954241863813593	3.65993075097947	3.329504676279157	2.744534808063634	2.081600064421139	1.750301935090249	1.538026258543766	1.452135121576816	1.40595243971228	1.058853858943451	0.909054188726202	0.7350253174660679	0.6233099316508515	0.6065890563946255	0.4995032215307447	0.2326839905597922	-0.2437268760207303	-0.9186217723236041	-1.019550749630014	-0.02026615218755978	-1.174487223801009	-2.093430977384116	-3.046810360371353	-3.046070681803485	-2.982885602001602	-3.111339752884589	-3.183936880992121	-3.669572399989704	-3.864001270753135	-3.698114441761845	-3.803693682295432	-4.087089157449782	-4.86025058238863	-5.965590466062565	-6.986139303138941	-7.928097135708128	-8.616048572586067	-9.043793571682272	-9.176198067083988	-8.878663487852805	-8.771861032981178	-9.078873641735754	-9.597416603540466	-10.07379510504455	-9.772503029492725	-10.66703319110053	-10.90014764089869	-10.76842716351365	-10.78739569857868	-10.66538447186389	-10.54021880344231	-10.50890719314191	-10.49330065238485	-10.97805334394172	-11.33151393212245	-11.61413393895907	-11.97355825871784	-12.25774875669373	-12.51695645535665	-12.7506640669493	-12.7786746234807	-12.73532879311028	-13.2254100743362	-13.15702628289159	-13.51937686668276	-13.49777510926191	-13.4121790517342	-13.55981423567323	-13.90438306826229	-14.38672354136298	-14.34147168305617	-14.27343216345616	-14.17149589447598	-13.76969692997301	-12.98769114335005	-12.74014556163854	-12.84066465695668	-12.91619947076214	-12.84933309310446	-12.72066903555952	-12.45825686944028	-11.92776037318674	-11.62145221694317	-11.33472360072454	-10.95752118357535	-10.7091779390704	-10.46271973244467	-10.45504657022946	-10.36219402504832	-10.10278635918911	-9.50424659423436
10.9447619893761	10.72337048025923	10.61854541872867	10.65986854995333	10.60100714737717	10.44622550004976	10.02062402234463	9.379487287518373	8.906844390811045	8.440845034323502	8.597765694409475	8.343973535214332	7.977725709426807	8.098769200358845	8.105032935289614	8.010596330861915	8.038023556385156	7.913854663132781	8.189399824597103	8.420175459106588	8.604244331420489	9.039349270869764	9.464043558740457	10.01848253331434	10.4887536259713	10.77074563506716	11.01365383594083	11.1218881940481	11.16184385293252	11.29395412740945	11.12773049516966	11.03492943646194	10.98984812319844	10.83786494628612	10.93497911906854	10.80803538543023	10.55029227950706	10.48829918526292	10.09387121170442	9.941436403824582	9.897301814810476	10.04646271447683	10.98840670115715	9.845307831155083	9.136022506267352	8.510237231883536	7.899360244240427	7.744384544296565	7.549549845594299	7.22701653675233	6.918746757704014	6.425685511408119	6.209751496703404	6.143453291067317	6.038198746398621	5.827852104132376	5.436460995910352	4.939201117354969	5.565406083037374	4.655290444542686	4.316428299267557	4.330000996994727	4.413381182750811	4.414791589009269	4.02331262952174	3.732900753494391	3.263639549530978	2.759555861995182	2.71150389574791	2.689209919349821	2.917565155918851	3.053873136018353	2.832041926516183	2.353339869689819	1.584183280699392	0.9447713784122129	0.9366761550084561	0.9016378225848598	0.834489432365956	0.6566936594060166	0.4311595131352988	0.74936478374525	0.5925267959606799	0.3768428289782264	0.3844199856135901	0.2788967187096887	0.0007241659602073014	-0.4981491104858264	-1.355938249269911	-1.597910073296589	-1.183892519267658	-0.334122702683544	-1.063686930741653	-1.974941863902302	-1.977029893413658	-2.073360317414028	-2.362103680435894	-2.860438679067215	-3.550024572015502	-3.680368719557066	-3.60876429552917	-3.944515508058316	-4.324647911174338	-5.208109875160062	-6.184262370362376	-7.135562499841285	-8.431438207836607	-9.260045637266785	-9.464437607429943	-9.528755439938777	-9.449249169101279	-9.502349072200218	-9.889176332907027	-10.36107413525673	-10.88097117809588	-11.00515907028904	-11.15215621604193	-11.31317909887622	-11.38540751324177	-11.40139205066373	-11.23260671310442	-10.99646989271423	-10.93698578004057	-11.04240053004946	-11.28765458940012	-11.50056228044332	-11.71070238394799	-12.14903721373344	-12.40208488078014	-12.63776973808785	-12.40721792794562	-12.3878096166855	-12.31009124185135	-12.95723202168136	-13.4790213552472	-13.75959419587065	-13.76058379970465	-14.01275853212996	-14.30414898856674	-14.55466746299641	-14.72078174499671	-14.49751735203074	-14.34756965567362	-14.19253028236903	-13.83037390651981	-13.60999407525316	-13.03640421044798	-12.74216127191971	-13.00239861205773	-12.82753141098732	-12.54591288992384	-12.79953124650814	-12.72654802176709	-12.60442510409842	-12.10700441030639	-11.80264141248267	-11.69275754031059	-11.3827333804204	-11.23605770214004	-10.7931358960397	-10.26387266226914
9.47337177031477	9.429550779927354	9.402576793721494	9.494236923931908	9.496821608428661	9.27431232878962	9.081438473881178	8.586225808185361	7.939289554524123	7.762335487404982	7.368297264292096	7.218319875687769	7.374145839718039	7.585827344323889	7.976724920967456	7.99863212270094	7.682162305808674	7.248714630495726	7.07160040468284	7.285413752708848	7.365716784872859	7.415848476682243	8.115898455846377	8.741727596475982	9.306383704098778	9.680565590140759	9.877058710751555	10.18986185836957	10.25509496289925	10.21110211437104	10.37991050492047	10.28642467879149	10.45107762161427	10.44708470046243	10.35854000762509	10.31125415096295	9.969637809455151	9.84456822611719	9.743320879587316	9.461285487680755	9.46141680695132	9.522699566962217	10.53939386682197	9.578129804598916	8.489038180846876	7.427385361605786	6.615603600395787	5.928528528503193	5.718022539411322	5.304382859579164	4.830087434497614	4.385553421136251	3.980988730055969	3.704486428817233	3.664940778070957	3.695847372300705	3.738045685568409	3.294739373701475	3.365721167135575	3.624702549085328	2.935227513746497	2.943464300834705	2.971905274828373	2.918505420713814	2.850562541760155	2.55662303894519	2.3541919125758	2.068368094825644	1.940834651232876	2.101795430097241	2.201583175954624	2.238388122753918	2.270985424465039	1.922706590442829	1.501629829769286	0.9341253812951891	0.4242847572480741	0.3427038753719103	0.2233301813674871	0.2649578050976515	0.2423131158757315	0.3031655127578574	0.2839868475828098	0.1633311703132563	0.3643680283724393	0.4879558165623052	0.3843849361863931	0.1819205181035386	0.03505373781746357	-0.2250424173972192	0.4051688197871499	0.3487557303652125	-0.190190173435667	-0.3711474312906944	-0.4644722653814597	-0.5653634094846325	-1.078517753941412	-1.781631996621229	-2.303333547043906	-2.945241187221939	-3.153981521432343	-3.358274935642385	-3.688586145330191	-4.17746870642037	-5.127827950420055	-6.12967405122248	-7.390713606558165	-8.80373613483772	-9.441542609059695	-9.77948638775905	-9.710871312704001	-9.697488613543953	-10.14894126221725	-10.62139636279858	-10.87226819002416	-11.00579689692711	-11.12803388479227	-11.42382430042858	-11.69140072101766	-11.80068824964928	-11.70311816071484	-11.27636153386749	-11.00326721242618	-11.03987378856726	-11.05472579673022	-11.2193626754177	-11.35643328040481	-11.62300929718316	-11.96806747714572	-12.22265185617772	-12.54693636411577	-11.98620789761952	-11.00819834345003	-12.39321082211831	-12.93764667870039	-13.32611921493395	-13.58458916168536	-13.6976861062177	-14.13107723086205	-14.38848199700328	-14.30042567056915	-14.15173519115206	-13.860642038072	-13.73096013136092	-13.59877150429003	-13.30157517321379	-13.22417542390849	-13.04131831510392	-13.08665445038019	-13.29146459678481	-12.83627897886282	-12.46590748200492	-13.39908599165358	-13.7046933415109	-13.46436465426814	-13.14131258925778	-12.94879902935372	-12.79472600292468	-12.34595722974819	-12.04296842302551	-11.55792364929852
6.181518496947376	6.277938821357338	6.641282913397163	7.178028407352315	7.339196630138929	7.361299251920059	6.884077216902256	6.577544158022874	6.140989881794724	5.831722804871788	5.68358747927283	5.634064714135491	5.998722274526187	6.270686339300482	6.185286405009435	6.078756549620664	5.938693724553559	6.058323013910467	6.571075015125984	6.58217678793369	6.442976402459294	6.513347542527924	6.682718097226541	7.015673444047479	7.240050559157339	7.611478526748272	7.921345124964375	8.135289996229233	8.43932181425663	8.530274380360936	8.684575007425167	8.862438486318922	8.885865951470294	9.069649977409256	9.097834462701428	8.90971146473612	8.910102378644183	8.940646005040207	8.855115914941223	8.563741190524752	8.315820440303071	8.322552324919627	8.210758934442481	7.836798796476671	7.021512482945411	6.459973180126838	5.601521400274748	4.816750096733472	4.47845328966622	4.293407377170411	3.861697045711708	3.420352735410688	3.017427366318259	2.339675780577295	2.073134191808435	1.911532674781313	1.768458976597458	1.76545941606804	1.801525035894031	1.792692177375784	1.781200572641865	1.847265396900241	1.998896458292506	1.908643195328978	1.843630634457156	1.749221923767095	1.471054839144358	1.452576904545822	1.54007361720403	1.486182121647801	1.609825883467238	1.547387181945169	1.774604747584533	1.850488543826657	1.601557450328357	1.260967436728777	0.6999346022111581	0.1879110270320439	0.0005517979373053095	-0.1264296987535545	-0.03479825064431452	-0.03895957809686479	-0.2038859127714545	-0.06972474245975491	0.2308640793406767	0.6237349859230221	0.7884141306245169	0.8299153748147887	1.202409958569376	1.440232181757494	1.602412136727935	1.726670328180717	1.646890686967424	1.650738565447398	1.660969116968829	1.506044385228847	1.258297206483007	0.5823976446891379	0.01079487988999972	-0.6285692963745078	-1.502972997957215	-2.000270639565201	-2.4538534397999	-3.095844274984927	-3.910096059647458	-5.192931675635236	-6.620644598350907	-8.054374932206258	-9.034914921939333	-9.235071908839586	-9.599611952864791	-9.793720923530259	-10.0801320890443	-10.60494292700054	-10.77589601007128	-10.88130589416261	-11.06326070619747	-11.15357967259712	-11.48281263479674	-11.6582759324674	-11.59432953884726	-11.30453706502146	-10.88371039059831	-10.72866554916709	-10.69847645850905	-10.85036789152156	-11.20022458429901	-11.40897108170736	-11.64220764733705	-11.92835101725285	-11.97753773667631	-12.39390802935822	-11.71678059493928	-10.33548339322419	-11.42506642728279	-12.90779524766629	-13.35321802053102	-13.68091081890515	-13.78069135044353	-13.94771600568981	-13.68260496608377	-13.49752795293443	-13.38990000965435	-13.20109758747935	-13.24113613073212	-13.08813560588311	-12.8252859632957	-12.75097330704835	-12.67596221429244	-12.78909977150823	-12.96018213039611	-12.23940671581238	-12.92216161831868	-14.14002148268321	-14.10279270702694	-13.98219431445602	-13.58239953926415	-13.34220920878982	-12.96956324803506	-12.48073621166219	-12.06096454724837
3.900011250634179	3.639099872932661	3.810066287304892	4.408515771111638	3.80003541187159	3.73942832497238	4.165466315646029	4.020746508591174	4.160387068532998	4.303570406549625	4.241811769974561	4.38019342111761	4.559964342025125	4.888078593707462	4.974308521034175	4.766854202661989	4.901112493373262	4.935447117462502	5.035195989141585	5.259003828791435	5.942202054653706	6.235355256336334	5.774452930154212	5.520669088716659	5.212816398288567	4.663980561030485	4.5837069628314	4.612250871255355	4.490362187808046	4.657356063185659	4.657513840640149	4.507756313980735	4.287523467879055	4.059466408986168	3.98156096471962	4.083646783026836	4.251404751703205	4.373361582309201	4.551173953490945	4.742344230340734	4.630919275824169	4.488157971848864	4.641513844303972	4.920221163023484	4.716265233774777	3.87360746438145	3.439186399004541	3.329171776933379	3.139381031184143	3.030377910161576	2.962375722535398	2.580798166845227	2.342654895933208	1.852938160061854	1.250249952040576	1.119739068580941	1.052964582449192	0.8255525582848691	0.9265518814970051	0.8219615087708121	0.8546068609322219	0.8601786704844585	0.7359871654667813	0.856372300515261	0.9263051542760081	1.066690253012666	0.9744903494294022	0.9110202464510166	1.128166473577039	1.103555845536903	1.118395769820552	1.323431902839502	1.529425857345643	1.844753124032536	2.076947084317283	1.759568329732645	1.428034886677096	0.8919448409981783	0.4897318552829688	0.5564679627947271	0.4891764666869562	0.6416614422836915	0.9966122772071913	1.336246378955479	1.893200947209948	2.464934850815723	3.047315716512344	3.101305985798717	3.248355012603326	3.559635070677132	3.725779919244303	3.894690873149955	3.696808072365116	3.617815808575642	3.524539904925746	3.121174767325499	2.655861406182055	2.189181777116858	1.835323076545706	0.777141100622714	-0.01424605905992848	-0.7718639385519168	-1.310612452664884	-2.08633624513709	-3.056927499628898	-4.258812760346757	-5.7616154021689	-7.033662917789002	-8.056353698735563	-8.837567119561299	-9.367617004062026	-9.970466297414134	-10.43091439930305	-10.71447051856336	-11.17429397357182	-11.21774196503276	-11.36511852718678	-11.31454993964223	-11.39943038540054	-11.57816340707996	-11.55068505034023	-11.18330088616841	-10.85861709792175	-10.48983457853319	-10.39677797111915	-10.65618076337358	-10.90881106401883	-11.17805205833298	-11.14109988144469	-11.21634546836981	-11.36684350494477	-11.45735214548392	-11.77683070284002	-11.54843450565534	-10.75498633954157	-11.94983043306127	-12.58130189011388	-12.80634344480143	-12.87425815223605	-12.66168548095561	-12.55046087038033	-12.38156947097838	-12.3284924030927	-12.32212209740266	-12.05386602146888	-12.00850728945125	-11.87500032811187	-11.75603490941143	-11.99120525844177	-11.99187496217786	-12.2915233295775	-12.48455229277351	-11.33788271810181	-13.36323913838282	-14.25712238848377	-14.19882529447051	-14.1692795933285	-13.75255035523975	-13.5853283954803	-13.21473495226837	-12.69386094304082
2.373087549193997	1.946150525459245	1.61550049057746	1.414851562977901	1.47298764347687	1.991031397945903	2.227144751750359	2.398468504845084	2.532644202758604	2.374558566856422	2.355256072514919	2.790563869778623	3.007367563565253	3.074384904627379	3.445397314472757	3.523373199966102	3.610831038446122	4.010424187440321	4.197711792847997	4.289852861840814	4.792815591437659	5.04110409392996	4.744598493959984	4.433034063593482	4.075667012956956	3.949959230448258	3.689063281815493	3.605831541947907	3.399940671526451	3.327280621921773	3.359431692669546	3.125671979036099	3.005637335822541	3.119070244588045	3.168488743180262	2.960003301133384	2.592045330157987	2.513485723565395	2.698878073846686	2.466324469441304	2.167042546885625	2.086243135540656	2.147201640911589	2.668453192221136	2.735588665216255	2.355971628892121	2.320007401292003	1.814039394883252	1.725222042558585	1.75774975022739	1.6681356150998	1.682300989209409	1.458455027245009	1.171885651201194	0.8533351687516415	0.5056464392624775	0.3769575087414978	0.1297433031270998	0.09067771117264556	0.378859939690301	0.3900222957397546	0.3500861313544874	0.3304831052640225	0.1016752977322426	0.1855171240723621	0.2710934446359374	0.3990921282789941	0.4635907251064282	0.5804587283959677	0.8137642278825297	0.9631612304306714	1.02335531807546	1.232538975641944	1.483755177720127	1.845081364715156	1.714058127538067	1.394367470431803	1.269650152268298	0.958463516594918	0.8696353448136733	0.9250181305469596	1.257786050650282	1.967532561538746	2.493133844326508	3.780516521475931	5.430927324156983	4.861696699217248	4.823031698640762	4.989027695410812	5.061944824596139	5.202730724369758	5.350418067142186	5.195507214148392	5.124225363047742	4.953535650882486	4.856526415027929	4.32607037816058	3.729401828700645	3.039525460266418	2.034910196863848	1.223720855731017	0.4301507449161477	-0.4474553320264931	-1.175038745732365	-2.036778714447166	-3.108629088728946	-4.243459297669062	-5.534277383623987	-6.744565747631043	-7.860894176593888	-8.963474881320792	-9.745655529012708	-10.39718883027547	-10.89133738150639	-11.4239249840125	-11.79589664075229	-11.71971743295592	-11.51844616387388	-11.45468863252495	-11.30019939746643	-11.31112483064805	-11.00113291903722	-10.7514113807074	-10.69565168027168	-10.45770557924232	-10.61884740384949	-10.81868766471047	-11.01705281632684	-11.0466647448456	-10.81684690831884	-10.72648004476588	-10.91532819170078	-10.92134518109503	-11.24274730460468	-11.38260778446772	-11.54863766501427	-11.89467891820135	-11.89642112351737	-12.01178252233029	-12.06418271435143	-11.9589402535621	-11.78634482774191	-11.73912095825267	-11.73098237918543	-11.77006785007143	-11.51833204469153	-11.46663065010665	-11.48591889832193	-11.62425119158797	-12.01286595371971	-12.32430965882753	-12.83694981943478	-12.92171857423926	-13.86852852903411	-14.36176128553865	-14.17936996220095	-14.02056308295926	-13.87229432448555	-13.25649642026821	-12.76206813271068	-12.87508208986674
