4.78511670913619	6.860186890188402	5.87497372199627	6.190973368725906	6.127786184474957	3.754157604956589	-3.274771845725269	-4.88021937765933	-4.69179012375929	-1.872321288624477	-1.188134878151914	-2.566119901149932	-4.288546025583997	-8.433146218703143	-7.505480647410906	-4.009036782967144	-2.935542177744736	-1.876970443638641	-2.374084658226877	-1.489124643538588	0.7147441704172195	2.064201746246965	3.244375709046125	5.230518005866827	7.680965260587612	9.123804062172354	8.989253062246519	8.564128551057706	9.140148453850657	6.78557305014138	6.596888815293369	7.561127744153907	6.472238141000702	7.163789181785575	8.17626605745366	8.200766217372376	7.289089582884657	8.217531406030758	7.607465977070717	5.515212444776296	8.632145855040932	9.96785733654616	3.226237495915086	2.559904381465628	2.624618843795162	-1.092895513189319	-2.864497914034274	-2.94827641252968	-7.15452123017775	-8.58492294949113	-10.53143564233255	-10.61897036629011	-10.44215778911479	-7.202222133213951	-8.448503915172154	-14.91263181686324	-18.68190846816361	-19.41273770431062	-19.38061204690098	-19.55432698031782	-20.73409998579814	-22.70705899903601	-23.81127258461137	-24.84902885699086	-25.30196249937467	-25.18828381946625	-21.96717910647308	-17.18354677563337	-16.61331817307291	-14.39866596279629	-15.83978127822621	-17.07144849381169	-11.41326825375708	-10.59200728254041	-9.971288037585651	-8.090433665133247	-6.474190590877527	-5.470032414462366	-2.404741992176781	-0.5897746996805893	1.272271624803835	2.219455189130343	3.98203387870376	3.071327160628783	4.233250112879603	5.249271155177979	5.340609863125508	5.590763240878545	5.894714462667707	5.397988638514988	5.710072525550487	6.531930816149185	5.37919641747996	2.938033012352975	-0.4723780308625862	-1.563957110785708	-1.818696597624239	-2.866879994999096	-4.39577943281077	-6.873128280020325	-8.203625054222357	-8.979393784755615	-9.057055348602944	-7.934258116448319	-11.71748624025236	-13.11665078412486	-12.41179859305106	-16.15376400267436	-17.52613358537698	-18.14420580401153	-18.80200106212433	-18.97714765664469	-19.21707536178388	-20.44678806652379	-20.25735375863397	-20.35823802362802	-15.55710496661953	-10.03306309236339	-8.623350259928543	-7.111530242827797	-5.112668321695509	-4.012782942426895	-2.57517988585505	-0.6774042446434976	0.7931331277363824	1.483530815686493	1.625655274951754	2.521303389948713	0.9947774362605628	-0.4589636929518406	3.552760408133452	4.044735501933815	0.9470773463927173	-1.379103266292219	0.1921606179826654	-1.036190283208924	-0.53667417014168	-0.7214483219813133	-0.3565339097378057	0.3604354992306753	0.6727716697096753	-0.1321685819346783	-1.64917404200321	2.238315436236604	3.238998238975483	-2.58506687856098	-7.092029998481422	-7.706588101027876	-7.456276728593252	-8.875582080689895	-9.63268952254964	-10.53569887436166	-9.934825328707575	-5.814981096190166	-4.08824795714628	-1.724118558427108	0.2741297176179103	2.714724160367524	5.069094506860495	5.849562668156295	6.460619747231846
8.675694881303741	3.22775647736421	5.066094708485394	6.193013970329503	6.544575124550761	5.755478153570209	0.2678060037824253	-3.520414385611389	-4.931290007121419	-5.203579784344754	-3.345629746376915	-4.218962115091102	-5.137961144795099	-9.763491563833895	-11.24943073023138	-5.21490716301372	-3.521151277408478	-4.071312692137667	-6.239292392254924	-5.446196993060198	-1.091246417926499	0.1000803502555243	2.339959695523362	4.009864923689719	6.178048613164179	8.55180741420142	8.679711679663512	6.267765581511298	10.02359251754007	6.827180110771025	7.502504926274383	12.55424416497519	12.77952698377831	13.51264845310376	13.70524711690734	11.3457228021054	13.0151407930565	13.78467810021837	12.7772562854706	9.698620135795323	7.005496680695416	8.16706070266909	3.07016608982903	1.535514989296075	4.745805078674522	0.9645864216822133	-3.053471554389034	-2.078190909562579	-6.222585839936698	-7.756478550588213	-9.566995789449152	-9.96869991323095	-12.01095778633251	-9.8289668401315	-8.141255545452481	-10.75814329095834	-17.76294749620163	-18.73160542744674	-19.72319307355008	-20.49254271706002	-21.13407938341646	-23.13819210513728	-25.33238370417979	-26.30958256757918	-26.12584845912849	-20.93547002147341	-18.62828169161654	-17.98941909019706	-17.77986242643919	-15.6300780430748	-13.41977848582627	-13.38480594734904	-11.53025379495026	-9.887868262457914	-8.978472154070175	-8.766286646927426	-6.261492256737256	-5.939772344081518	-3.166951915403502	-0.7093762149608551	2.069381740943726	2.367451341372089	3.584899799501926	3.339019665547482	4.567185745511097	4.531721505178837	4.825837664818692	4.124743973303396	5.542394154724121	5.777663766571777	6.021261776792301	5.677447588344478	6.713254588374696	6.104245032235582	0.5735788402223534	-0.9986725628415059	-2.12263565988917	-2.662032547520084	-2.628230216600002	-1.842844429588752	-7.432298129626986	-8.962068698438372	-9.563804362259702	-8.376833153422155	-9.156702728489591	-12.32206192525689	-13.80372811073514	-13.34904401148816	-17.76021172270126	-16.83482853802238	-17.54289491864694	-19.3643632509133	-20.4075077590862	-20.12076333129386	-20.25583232077912	-19.2893897315308	-15.87261737019674	-11.22709842818551	-9.300592242264742	-6.690703063247952	-4.777763618297598	-2.881684279704444	-1.890007816728826	-0.7395152017477358	0.2875501000341103	1.795455781557109	1.731140092544734	-0.1558620668193953	-1.598708293427649	-0.6567157495679794	0.1061765714677279	0.7747060367155427	-0.2688803396752064	-0.9565342844597637	2.703806493488599	5.629995802627974	4.543772133570286	0.9657510209492841	-0.6623547136611307	-0.1798553348667724	0.9226037042356836	-0.02987555472680015	-2.488053571491633	0.6881910883561204	2.181643748955281	-1.040658948040829	-4.477713221531104	-3.686255868869097	-7.92082425650392	-8.542385268203475	-9.063260524920196	-7.712498343593495	-9.24815450139954	-9.315450164020319	-8.69845720941953	-3.855149248885994	-2.718374159886991	1.246816174926067	4.053523448802167	6.237294639529267	7.138965817278631
10.20879167073952	1.844769430604771	4.638829311740324	6.796776352809815	5.98292293076338	5.443492804621656	0.5488272438566071	-5.167956866288307	-5.273311666531072	-6.615171047098841	-6.714589802314748	-5.384785550129038	-6.033707842671504	-12.17238434040104	-12.02483780068374	-11.68669970797237	-10.73170123489814	-8.088234102527309	-5.925094674225306	-6.358253709698374	-3.09366948440001	0.05291376145314075	2.185298693511839	3.856729756109672	6.462913053545549	9.32944023024325	10.42753241653074	10.18694753828987	10.90449363356569	7.149000530099471	9.633487310080227	12.88260535167979	12.90454878435034	13.20957007801454	13.7465185148759	13.96718468358708	13.23307393162042	14.10747456652132	14.14684076230381	13.59427256758957	9.123458517339543	4.875656178019426	3.955650385273657	4.4857918156099	3.19544339581401	3.633608229423658	-2.277620016507313	-3.473100481327776	-5.580860231918678	-7.792156173343443	-9.203941725615806	-8.787364147488319	-10.95752632612169	-9.64604850402381	-6.932345945305457	-13.24138552562823	-15.79106531404307	-16.4232528467829	-19.45436317871867	-21.31356188430638	-17.94355209138052	-22.63692167313755	-26.0239114911974	-25.33119662207591	-25.02709833955996	-20.63993522273873	-18.36028403366197	-18.02913140499754	-16.88826788761912	-15.68314219506445	-14.11213999192071	-16.51802688249344	-12.23196075196296	-10.15958393745109	-8.711822538550109	-8.599769357821515	-6.995972496629207	-6.427816934869213	-3.474953036230573	-1.187521373448448	1.235990977407596	2.25378339884503	4.179718120707292	3.750778059353735	4.17585776987292	4.069454611927426	4.043588183820617	4.681856901191509	4.151437611464218	3.610359739670059	4.812135405102936	5.331555076470238	6.251471000981439	6.106940553627595	3.214076472192943	-0.7075826274366648	-2.369570289711845	-2.702831060726311	-4.726119930794795	-2.209848637073293	-6.857274731771895	-9.567701338198447	-10.88714124748097	-9.221738982404759	-9.566063472509114	-13.18070644559685	-15.57835668304133	-12.89663845425829	-13.32390273391732	-16.81829664405814	-18.24574660260592	-19.7543826600245	-20.04111841800326	-19.31404881064066	-19.72208204333646	-16.99078340836957	-12.20054766555188	-10.53634565857502	-8.764996987346365	-7.112683871077792	-4.988571794325054	-3.554435701211872	-2.344869276586024	-0.919780697014744	0.4639069928162201	0.4859212870087219	-1.663256099910029	-3.459859720146426	-1.569055459361863	-1.599881921797646	-2.001757937882928	-1.822168506696556	-1.211986753839426	-1.328594382996556	-0.05886497602745067	3.500372551843896	0.7824238494404199	-0.4665181186306313	3.810458147827887	0.4399870050215213	-0.01616799803002777	0.01846293984203839	-3.043875400715081	-3.381007037376321	-0.04674744490040439	-2.72667846511257	-3.641929072691312	-2.597963498024001	-7.495723783999836	-8.195458330918228	-9.962092290499982	-6.466967160043112	-8.860607406382059	-9.276690729182064	-6.871851326552161	-4.480382931766172	-4.256231747609689	-0.7709385454011226	2.530474339376099	4.967142088476805	6.299837641560714
10.17971995928377	4.682779846684923	2.29752857402039	6.222399329638506	6.457529056141937	5.617362707671987	3.566399053564396	-1.168312857131809	-5.856719444176036	-6.460123961674242	-7.096534188802735	-4.754044380884011	-5.139478314723476	-10.03334638039624	-12.33570068898587	-11.19994868946668	-11.00799347392768	-11.32000853271438	-11.1868330832302	-9.230331018532212	-3.657076058806695	0.8287406445432168	2.872619626032247	5.298780106362159	6.916773984765655	8.393256229256025	9.933352927575811	10.72715449348445	7.822819850168372	6.158858163373964	7.567705731509136	12.02933951641933	12.66366485492026	13.4875471709006	13.01369967618743	12.95042294719016	14.1910714588918	13.81015468391334	13.66000152522761	14.0774937821493	9.900006256350224	3.888723172112265	2.161366720872451	4.363231649781	2.88426801744265	5.826284112039048	1.479951290659585	-4.079116071598378	-6.754093796217632	-8.747498293792148	-9.831728879826613	-7.814472607688316	-9.702933155515467	-12.56193085532524	-13.73116593534473	-16.08562296210383	-16.76039336384457	-15.38048946458412	-15.68299071040386	-17.80856528074366	-16.74339788064572	-19.57542020461401	-24.66337157672976	-26.38800696439006	-24.12335778623824	-22.40633559762429	-19.04114428220188	-17.95539266939466	-17.46906648526851	-15.99283244443703	-13.84910311100404	-13.9640167336953	-14.43383430676283	-10.33244526644117	-8.736288329378766	-7.387821896703514	-5.926268142664668	-4.774664698896288	-2.842025005257341	-1.0437912793154	0.2121098750533292	1.463293104467198	2.956995277407771	2.990468138209337	3.635632948398552	3.706947688804746	2.774269061577911	4.612524486689097	5.75163207531449	3.93611937961191	3.717622128521782	4.614976739986616	5.613793779170408	6.682554265663441	5.479496521315014	-0.5434277822727154	-2.6819553944284	-1.176346468807026	-2.651063620000969	-2.033129544914658	-6.018441481269861	-9.187325199062997	-10.23539737509009	-8.074770729155347	-7.505097495816358	-9.819388078611951	-11.2800472259029	-17.25249768775126	-16.44192876798047	-14.33996216088104	-18.94158252721439	-19.76136702268693	-20.03430433124285	-19.49442850673947	-20.15992661851959	-17.54684314848078	-12.18969346329598	-10.75879944178874	-8.937227259130623	-7.41255906341533	-6.354398540104398	-3.555194245617571	-3.780236574736648	-3.771672428196638	-2.418364738512167	-2.35322963470648	-3.267415199361807	0.07080837077137403	0.3335041659129843	3.578718046004326	2.988484720155498	0.9939543767708301	0.8872085569029764	1.185736120386366	0.3952765286215367	0.3129986161144984	0.1537974115864813	3.485276144846807	4.490040410377048	4.832858574164277	1.237278892871757	-0.8528660276820688	-2.440727582856994	-3.812033889771527	-0.534374413287253	-2.257810075148768	-2.566748385398284	-1.791355295702431	-3.399384158876273	-8.996703682147398	-9.395943868746599	-6.879966738065121	-8.693777152298452	-6.564675106108552	-9.090488559113936	-4.91246323019277	-0.2736205596850709	0.9981559951902454	2.375525868844932	4.584827771787616	6.779981994150319
9.458971288798097	6.232465600368556	0.5861114148628701	0.04005287566505444	4.108859147268419	4.841728465081047	2.741784684555512	1.094264547706473	-4.956543943816882	-7.201103250285826	-8.234613442623186	-7.227915604770487	-4.686333176799394	-7.834074274414462	-12.3281168727313	-7.262195633842083	-9.087804312939994	-10.69944270036498	-10.42717103475505	-9.783857391980575	-5.540065408841173	0.5433292263743681	1.747178006455158	3.865628514029964	6.262634690769943	8.599251515130106	9.793659833215855	10.78326361818998	10.78230721302702	9.627003084587329	9.35478022103203	9.062726922563769	11.42031481380141	12.55302450055865	12.68871753450938	13.11020085523077	13.87004661020231	14.33001804967537	13.0184552187927	13.72617175582013	12.28090988383977	5.792701477753042	2.215189679318456	2.670235272139877	2.067424353754774	5.16300145308827	4.457104849889504	-1.498543707620058	-6.531712645282994	-7.778009196899035	-7.690540859868548	-9.383649694650416	-9.523530233621528	-12.82070262166468	-14.13954289563259	-15.47873089227102	-17.44124034402665	-15.16697194090958	-15.00279745772445	-16.72499068045789	-17.01796237798939	-19.10972303723665	-20.9792456938905	-25.66039636602346	-25.17860324959713	-26.03161272721744	-22.08232877283976	-18.26654664423347	-17.59862809127398	-14.91620730061189	-13.38607101099606	-12.27761770506859	-11.09741266798039	-10.72227643507321	-8.692511648288416	-7.390699770422174	-5.664236227997179	-4.428566202980704	-3.31567576981675	-1.958201688695851	-0.06253350354705844	2.484740791508955	1.717519636212216	1.184290328543057	-0.4128680632337591	-2.44979524161235	-1.37877761694898	-0.03979612345000305	1.117759575616105	0.007890284279767457	0.04629449563384469	0.9928395252129576	4.163662541255178	5.612811008644258	4.299676858898863	1.47231833765187	-0.004871788896593898	2.01908235348327	2.05733620070805	-0.4416783234935906	-3.072255956025913	-6.953933391083808	-9.623785039273997	-11.50239549143211	-13.63722206167674	-14.98067848450015	-14.88031519552126	-15.84168585263032	-14.63871423975084	-12.63520210880358	-16.2521653191005	-18.97584083615169	-19.72144362410648	-20.0245683295673	-18.10871243092993	-16.08028501648656	-15.5195794345664	-10.69277363758306	-8.665194289698093	-7.248666746338813	-5.831430794180307	-4.335856214602558	-3.043147450695642	-1.167295389255059	0.488768580505166	1.518537802192611	2.514398654523973	0.9385018264632663	-1.773271549992273	-2.873690680213826	-0.07007693501697076	0.95308858975676	1.977220426108602	0.4395431076505929	1.498417543661787	1.633900641415721	2.404457391635731	3.187088059320786	1.998357233472404	1.385535087552228	-0.3924844847529698	-0.7655683768605286	-2.556640366778424	-3.231346170783809	-4.712798629232225	-7.10549876233577	-5.795933442839356	-2.861321314634324	-3.810078878831064	-9.232779783695747	-10.26602142423505	-8.796103242430178	-10.68369395144333	-8.110909542959064	-6.769590235213911	-4.047100840117935	-0.7928767680634223	1.689605764071132	4.49094794445864	5.673824118111213	8.138924644046256
9.368362617453784	4.605072726676212	1.068206809366586	-0.6861522773745321	-1.058306701249933	-0.9131956833776655	0.1506509174488713	-0.1727482718614226	-4.05310116759901	-7.491104932232219	-8.425304117574285	-9.476730574025169	-5.640865364263249	-6.679765915028952	-11.85095235914028	-11.54310996186862	-9.967251580347039	-10.1618943758659	-11.31428738501813	-10.82006016623475	-8.198822845794638	-1.600958946502118	0.2934207279866428	3.348216086568158	6.23837897533673	8.046915313452075	9.951231324953511	9.878113270020407	10.62362005386888	10.48087104757275	11.10831007023879	11.53468859668564	10.881767626288	9.241774082066797	9.071821847692689	11.50552555180386	12.85708689970423	13.07716049304915	11.40247120036562	13.61230903270348	12.69236761010831	7.96927167031896	1.766184247414685	1.312222503096564	2.801329855551501	6.125130814086106	2.503925565228201	-0.2535737355528624	-6.782191285360938	-6.207312642486897	-6.734986248146328	-9.053569440968971	-10.71305400350008	-12.61338278918086	-14.00393717129828	-14.39050279786784	-18.0940183977884	-18.28657311898735	-16.70695342496884	-15.91070164671476	-19.2001027892386	-20.43366610385686	-22.16745269150886	-26.4374715928723	-25.193585489719	-24.92023802074814	-20.0893779830628	-17.696966568725	-19.98246253809305	-15.58207657705881	-14.16615054830027	-12.21358079658657	-11.24227043077423	-9.673606917195968	-8.484388137377152	-6.724168241426753	-5.867832451136593	-5.041143705552628	-3.910322449705404	-1.653573336531281	0.6479292370221401	1.702596297099717	1.867715088738805	2.705109267586579	4.489267429085373	3.713166816847092	1.205444612573103	2.568171598877541	5.072195373045872	4.294403239775704	0.0402638760539844	-0.8602456794165505	-0.08869008164236902	3.237565874840186	3.693291192684228	0.9758339965623009	2.182044377645013	3.372556697075083	2.708993999333074	-0.5999531755504108	-6.850345360044372	-8.577195514832141	-10.6147741348266	-12.84075229968084	-13.63337360167301	-14.61245869548401	-16.57654721208871	-17.71025704487795	-14.63521742249077	-12.11439316810004	-16.31304210543641	-19.54206264480086	-20.41427577779373	-20.48891872127479	-17.8574723748888	-17.18847653636843	-15.71080142024937	-12.83516437435944	-8.938358394133246	-9.413579690950513	-10.64698039880216	-4.628206926390419	-3.002387911102232	-2.276577048792888	-0.551816910521211	0.6604488219252289	1.681604065934664	2.598576879963275	0.8391664885980958	-1.036049744192781	1.738734381930215	3.264486374357546	3.934146313997076	2.834597554890138	3.141149485084895	1.632120611144046	3.677452910558031	5.471091283713974	5.787966405089549	3.724001565783226	4.402165706382164	-0.2686257451769052	-1.823982837709423	-2.385556120855313	-5.201767456054483	-7.402670274163341	-8.467441770983783	-4.37107924529613	-4.416300452790097	-7.963187829054874	-7.162465854555052	-9.400587208061523	-10.40053074306584	-11.1688065198517	-9.646023794662653	-6.532811038920102	-0.1753785411347621	2.317155439130602	3.109072484412252	5.433806450982274	7.521960483452062
9.052000589989433	7.125179470463706	3.548245894603724	-0.95569558721607	-2.399355367476915	-1.85861342516128	1.279068607991491	0.4914006015922325	-1.647474987105596	-6.741231727309838	-8.491176751255978	-9.335303564186177	-6.525735132324911	-4.771441219482398	-11.22429562290759	-11.7102402730446	-12.74949466705255	-11.4722441515768	-11.31911782166171	-6.052778473500297	-3.103725319643786	-0.8345736368547705	0.6032891259081339	2.97332064912132	6.228759008827893	7.025337370664175	8.303403833588362	4.955101966971398	4.429531109635633	9.095839546881308	10.96950694908739	10.00325706893921	10.66877280954748	9.819806275875237	11.11503002264783	12.6686604134415	11.64020219069204	11.4128017737678	8.916424503168571	11.90346783219144	11.55857614709475	6.9867186048333	2.547065797964308	0.3204514558821074	0.5272431276763427	4.376623920574843	-1.696035522062232	-5.69270514724974	-7.347036601276585	-5.409026992269673	-4.650944912037488	-10.00289989961664	-11.12698950019035	-12.62458317741172	-13.67401601780622	-9.476932711709594	-14.8451122728689	-18.76430665565053	-16.15017156609304	-16.67756957650275	-18.75367830297984	-19.70334633097215	-23.12246467496442	-26.72649494750297	-26.95842423690826	-24.31143380184986	-18.75542312720162	-17.945523263654	-17.87106734720925	-15.80109913790119	-13.95854049204704	-12.05469296397246	-11.2621797187096	-9.760580652263059	-8.426971238353616	-7.667469797005907	-6.389539387006067	-5.383324459219011	-4.807190659629953	-1.873475745333053	0.9852531121837274	2.411524636678962	3.193289623198098	3.737954423459655	4.739307156447296	2.573419514780483	0.7996314639476054	4.762826910298827	6.017733316678175	2.529241337733993	0.05907543375957403	-1.146046296720556	-1.665717365274816	-1.292231174172741	2.463172609856088	1.983987582746522	-0.1564189887841962	1.973281041018993	1.933726624951817	0.2664053979142409	-3.56125780712631	-4.032578778138429	-9.939789328564245	-11.39140337389995	-13.44812708444948	-14.85079016209346	-15.65984561106362	-17.10837108282399	-17.67988489820107	-12.95127287969262	-14.96745299123054	-19.34470941027453	-20.72136342365491	-20.49906179278244	-20.04858150220477	-18.68130434611334	-17.84085891526891	-17.73908566286212	-16.66949377853476	-10.17344816470367	-6.186120788245262	-4.846115124168989	-4.168184513225185	-1.785765626701334	-0.2355398021293809	0.4499394045660097	1.878996705810323	3.086843003491367	3.008324999144861	1.810206483266086	4.212434391963029	5.486663644617693	5.047616493129226	5.00415654878816	5.792109863777625	3.874356130983074	6.458313105888976	7.390737676977494	6.796926128751409	2.31961593673401	4.012016014138453	-0.3930919406980706	-2.124404776613346	-3.306544854003391	-4.160525961104554	-5.742587446313905	-7.54741031615896	-5.570655217922251	-2.899411002902298	-7.364993374710593	-7.814552294904047	-8.296470685580857	-10.07198799589065	-11.40825693724119	-5.506561548560455	-5.118775776481755	-1.31910381213919	1.341073553905858	2.757124867852099	5.226768238470186	7.59080923162395
9.425973663119464	7.618354672954354	2.620633857213505	-0.4192936881642026	-2.118996917826109	-3.978682956283137	-5.432447890042084	-3.052451044607636	-2.267668936418829	-5.907486252753017	-7.796185285339277	-9.73093635088361	-7.176118890129686	-5.496251511213984	-10.91226346529152	-13.05150508580147	-13.04397295147896	-12.12674813565886	-8.394026928163044	-3.902742585349671	-2.395532802843604	-1.540710415066144	0.6685461386592806	3.52617760655761	4.584891161350924	6.808927964033501	8.542949404243643	6.015383762534157	4.05455791230662	3.836068311548615	4.082402438648103	5.864396346402145	9.818352513718594	8.845617012174785	7.483359299899632	11.01484971650689	10.48768400091734	11.9633956293859	12.07885529189906	11.21267019654255	10.31166962550441	9.378309583982968	1.996349860673661	-1.160714804186057	-1.223527228478417	-0.7075866312763424	-3.417529646909202	-5.396426567963289	-7.859913999935742	-8.575641813084303	-4.568772599485101	-4.79688053339234	-9.901562511678577	-13.20694285257662	-14.85989274201643	-11.17473987229178	-14.89096107025452	-19.06904027960374	-16.48412018108857	-17.09744066768016	-21.83258271647742	-24.79089920683938	-26.48623919253731	-26.92841780116436	-27.27468778501614	-24.4750375227467	-19.30928053206995	-18.1906822491348	-17.29729839163389	-15.97396845160932	-14.57423563720624	-12.35962350311394	-11.84433730791122	-10.43020961651933	-9.60543284123645	-8.001426617734495	-5.867754868303848	-4.787030584083311	-2.82942507706872	-1.241060839852196	0.3102942658631491	1.675572433927982	2.502524416690221	3.087081795230347	0.1393581665154784	0.6350397104739613	-0.0118741060102252	2.154772716140656	4.569363333372337	0.6809314942525475	-0.2620565254705411	-0.9067222584529873	-0.9930448622634458	-3.194499383392269	-3.8805750647997	-1.41517373274263	-0.3695717467471695	-2.091551242450805	0.1315798246882878	-0.483786443043698	-2.242134925386495	-3.22035129978434	-6.791120618865364	-11.70211590134741	-14.43507931576593	-13.25832710043292	-14.35765592279128	-15.64783881300758	-16.61063792347156	-12.40636087211558	-14.0758656389869	-19.34959887740027	-20.6813237973162	-20.17706411505861	-19.74649949348736	-19.96832078444487	-18.61133842069333	-18.1205241045017	-16.61202847028716	-14.48370212715398	-7.876013686083581	-6.242810448945875	-4.919170667910521	-2.457979618103423	-0.2613998664929795	1.283696632314673	-0.3401250937943132	0.03247109708559037	1.861802889506237	4.0008224773336	4.434445035570036	5.413364399650618	5.243746263976902	2.608940619152975	1.498814618286133	5.721882330587164	7.451729687441855	6.338689433386264	4.287275764704873	3.81789546426711	3.786600005884111	0.8088200583044909	1.095927647869416	2.11950914796688	-1.91975145500669	-5.137413926243141	-6.548414155496346	-8.027554160292482	-9.428742391837432	-6.62789849805398	-7.161702044167384	-8.127393520130113	-7.242892025887215	-10.3813938279709	-6.025524060895293	-2.12311712509603	-1.31587118387489	1.19444308544297	-1.535953180293063	-0.1152116179180211	6.806387143446102
2.144081021746416	0.9553033644808409	0.1435113058913942	-0.836918126581935	-2.439895305836103	-3.561126481223454	-4.479625404414492	-4.637884824225779	-4.534896222849312	-4.011002958206291	-6.158843237939209	-7.205300890327862	-7.989477428213945	-6.992178746646886	-10.52940684356861	-12.60421362021717	-11.940897803231	-11.82844017151726	-6.209956909839178	-3.905451810756347	-1.504264378561857	-0.2075664301415259	2.009156615127154	3.814530574258413	5.595292521669535	6.548768970925437	7.393287342193048	6.452707832019655	5.474600420387617	4.621722511521511	3.982558473749236	4.32865263166434	4.754118510313958	4.671355754387832	5.343535119476599	5.670241772014322	6.451696157637343	9.143411145729772	11.05201612083664	10.52372137146864	9.878458735970412	6.136355773432228	1.814848938167529	-1.088803362761155	-2.871178949580553	-3.730428677406564	-5.089771244676854	-6.263819641317752	-7.836172282968079	-8.909987078331625	-7.508673415447419	-8.193040358301744	-7.499853781508108	-10.348505436784	-14.84481502539563	-12.23711113356785	-12.96379529665816	-18.24192703204676	-20.10081197057656	-18.13949577659864	-22.47797380763737	-26.06098946550387	-26.28546923352229	-26.96767315746692	-27.62901816526855	-25.5384175833716	-18.95385523473746	-17.84083530138699	-16.95742155170998	-16.29844703693081	-15.67829141970421	-13.17758589656657	-11.3473506066714	-10.95887197183333	-9.183411543922148	-7.670367276188017	-6.749515301729332	-5.408920708708422	-3.627657799244901	-1.633844545591899	0.7050484721593193	1.635897471082842	2.285472280779118	0.8679680932082761	-1.156326574238562	-1.561772992867191	-1.291717275152337	3.402675352221593	3.683318258181032	1.366113801492418	1.174109680409231	-0.1843858275528305	-0.9420390892356636	-2.396901469963609	-3.352711681046969	-3.797711430852246	0.3733156748482429	-0.3067833741217214	-3.171637715288	-1.113552000971254	-2.285740175528701	-5.442210179957897	-7.199811148290678	-12.3184115881547	-14.55796038776577	-16.21849678090365	-15.22952390012469	-14.91644462194247	-17.15368003851455	-15.37902437673225	-15.25099207277074	-19.48814224681516	-21.19203652998891	-21.38106629679893	-21.01536950213998	-20.55001856361332	-19.22793690963681	-18.36939111730899	-13.65874132229516	-10.37215219799276	-8.799229296401506	-6.707229704811482	-4.667483670469949	-3.804174584189809	-1.353278326722545	-0.3575748662082106	1.74674732145553	1.430444339307087	1.179565577039057	3.406916035164045	4.009212108095653	2.46124367999613	0.8486201282674415	0.5002670416965884	1.786519470848759	2.666717231828386	6.432682480708877	3.160119156482779	2.907017749170336	6.020202654869138	4.344135839812623	1.358582404628748	-2.33813209705346	-0.563308795537182	-2.197665354792434	-3.735597483714514	-0.5666928171938821	-1.337088655478794	-6.098455968522671	-4.936183389322366	-6.502482273226974	-6.600419179746268	-6.571576202427195	-10.58976446366017	-10.52501684197728	-6.686185254796499	-2.396481887211849	0.2362642250012073	0.7988305778017661	1.688134471207889	2.473774704590596
2.650276231864495	1.223281543132885	0.9543769668849222	0.1671647968896082	-1.268557332953037	-2.465377086971557	-4.442853813177464	-6.201578670903388	-6.917823524444515	-4.736803465629606	-5.073544545644182	-9.543216275951522	-11.43803862240637	-12.93701437673519	-12.89516340163382	-12.52166583993048	-11.71292629553872	-12.05491790672085	-10.20221327660897	-7.399385998922156	-3.94572780186428	-0.606065680180734	2.430231545291008	3.229976521622973	2.088841444916568	4.76493420776228	7.006942420538962	8.91406823889406	9.374270453416671	10.45210527443862	8.880294293669522	8.235227221796436	7.005072040664118	10.53251603640291	11.10650327471819	9.505162012062272	5.405953697341943	6.100126346752063	9.052677955222748	6.381523026714831	2.567385883596046	4.506896610891602	1.943011203740014	-1.005099031778173	-1.659954145102063	-3.326037243664587	-5.072660201950782	-6.94206571648931	-7.872456189340198	-7.529405826386892	-9.248913751072337	-9.871688709431567	-7.499158644491956	-12.98462396371386	-14.64136550112846	-15.14738049505411	-14.31071665026562	-19.25018284912937	-19.83299827797148	-20.87224538444624	-22.44232912023864	-24.43629394213875	-26.33357494872718	-23.95351770077596	-22.24535211575048	-20.76046372091838	-21.7505794450297	-22.29266624810342	-22.17255365874038	-20.09774559675947	-16.38329402166968	-14.01656389476494	-15.11171324530076	-9.806708782552903	-9.718259443444026	-7.964331847349115	-6.060890385684161	-4.144469382428611	-2.27888050673829	-0.8305858208969426	1.388799553632396	2.924023614644341	3.28293671458448	2.296197517369649	2.468323623174683	0.7505929245482434	-0.5705159914159594	2.336886718772178	3.516285886827404	1.773355977100948	1.821073139673899	2.768278037583002	-0.701497981656928	-3.417233057407714	-3.62257517540877	-2.714392484663733	-1.041319147321133	0.6599766751594984	-0.1811613403618821	-0.9613988100309143	-1.030737728065162	-3.510369400560933	-6.023780491023444	-10.89180994412283	-13.54460283001617	-14.00580023676059	-15.76459998500894	-16.67790409288406	-17.52410761281627	-14.09142101493634	-17.89321722505923	-19.90010503823291	-21.58464558684025	-21.4809950683464	-21.70835099159268	-20.09868773715044	-19.23945198837976	-14.89444534781737	-11.21357846481772	-9.517122363079068	-9.71362234571734	-6.956538267227984	-5.02557912438931	-3.501190455280891	-1.323387392413565	0.6028492133850705	1.559970096884285	1.175571056488707	-0.8700495283280247	-2.524991951993798	-1.77287742901774	0.2754104292942543	-0.2710483128964825	0.1680090433789587	-0.09595738951281874	0.5057223253126608	1.757975056730288	1.401061103448853	2.402713689375901	3.743893718657375	0.8484172679704329	0.5962515313098038	-0.9403383077376475	-0.2667325413649451	0.6974436063856615	-3.6091868494442	-4.630261973028382	-2.884796284713445	-3.733432439954186	-6.2691234012932	-7.468726866776535	-6.769048384288112	-5.713181049614548	-10.48550010051514	-11.63667301594938	-10.82876018272668	-6.165254248304791	-4.971510130275703	-1.574542675053351	4.29496976402919	5.885716424603856
2.98716470382368	1.899999078521205	0.5276818291102359	0.1975881633050562	-1.80083123093749	-2.6721622053484	-4.287978546119177	-5.821838209568028	-7.526660818509583	-4.330758583742295	-4.320050610753981	-9.358361744772878	-12.4660038661996	-13.2023708282438	-12.8806265061877	-11.98736378024259	-11.84711203435671	-12.13009661763124	-8.682139627262643	-5.46947157490024	-1.950733777033804	-0.8147731750902381	0.5076466065871728	3.676900693546486	4.94325313494619	6.760586618722755	7.880710983454264	8.931274142959751	9.961617048984237	10.23391245976336	9.816747692460524	7.492289521359055	6.73488115993257	9.995175582582874	11.72484064547979	10.9619345564771	7.933797132891414	6.86926764979097	10.74188955460585	5.407311027738558	5.188527511305438	1.723194069135559	-0.06852235651723504	-0.7867570853328516	-1.679700278733435	-3.002079843385161	-4.885519575070703	-6.016858562907771	-8.500696129137395	-9.864162605383285	-9.722969511426982	-10.50219446277202	-11.8477784457157	-12.44074291485339	-15.7461332438229	-16.66151637134928	-17.14165751618702	-16.13134894105482	-17.10712899744573	-20.53905514372991	-22.26959377657909	-22.86477627867632	-25.93057262367765	-22.2194191955609	-18.92194338959027	-19.60381120033429	-20.73035684367684	-21.78011275847265	-22.02067210791228	-21.32157165871712	-21.65126474551695	-21.53460676154128	-17.50448762872202	-11.27359968170776	-8.572796121728857	-7.269962068005611	-6.310275155224758	-3.566400597213715	-2.125941568628832	-0.2449416927910306	0.7456057726828362	2.223453044967016	3.38049882167229	3.87624473578154	4.532613603547759	4.180726296831153	2.961639331439471	4.736049105495454	4.955030833635817	3.794256327623827	0.8739622634690249	1.204216934836779	-0.6529961117689709	-2.478242636344532	-3.490933930639756	-2.057042454141197	-0.4705378321274338	-0.7626504928689997	-3.133210623943398	-4.205657220041417	-3.977150386196286	-9.045929656755391	-11.19677918425691	-11.68021173733189	-13.44781197221465	-13.69021527538308	-15.52847807274424	-17.54868247009583	-17.58680923428011	-16.51722141324058	-18.6339898986846	-19.69820238517178	-20.8731827156987	-20.6853351823674	-21.01643851753084	-19.96508076924931	-19.49971527215305	-15.57725203990856	-10.97218396950421	-9.923547871170001	-12.28112130505144	-13.37029041831482	-9.590126199089639	-4.569845443921565	-1.376515448154862	-0.9056828603922327	0.6304926646762965	2.821117159018627	2.25423616643377	0.8596813393257321	2.51533073680497	0.7585720421778319	-0.1795603314677692	0.4098297982098416	0.5236693540262536	1.651702611552025	1.877012325922237	3.028032855873505	2.815313803556194	2.218112020093372	0.6045167848165534	-1.298360965629399	-1.086630180799659	-1.638761561337276	2.185262096343877	-1.052492606370834	-2.606167443628351	-1.775522280375299	-2.628057452738858	-5.926274383855571	-5.622078703766306	-7.593703194189686	-6.993063257348126	-11.24587356458579	-11.71310396407057	-10.54094875322494	-8.144954525498861	-1.767037818755512	1.633909993896566	4.317496697959712	5.287291192321959
2.643098450671857	0.7906929476146161	0.4691686128048786	3.499722222973901	2.430931832089982	-2.870896988859613	-1.67905259521109	-0.5417843660201243	-3.289307258914278	-4.921624528400287	-3.324705614412153	-7.695090884365356	-13.71248784850744	-12.81291309923878	-13.84000855277642	-12.74887742113552	-12.1912938623897	-11.97479274015583	-9.639676696375517	-4.01358046879534	-1.434205461573868	-0.1450692268616081	0.642554220922932	2.89724568559916	4.910448170178483	7.264340142816764	7.972253514581212	8.151784780026105	9.040145446075655	10.40379120672293	10.23616433286958	7.911038340379889	5.72702806895046	9.427259334802898	11.78932934168472	9.563652701251328	6.529680507502007	5.502070309724218	5.146735499155341	3.935050733019807	1.855389635473102	0.9163820510430583	-0.3944502775726733	-2.757975133019272	-3.694083782715552	-3.391371339162731	-3.779279636196463	-5.020825463019719	-7.691469957940399	-10.07929449464615	-8.831635576463896	-11.92086986941257	-12.61144536022886	-13.11013830195708	-15.0062819799835	-16.22898970829669	-12.27286594755617	-13.37312486281769	-14.29880887696874	-16.76997685805244	-21.27928981258137	-23.0392406517993	-24.8159226459851	-21.78501234360812	-19.61988323462285	-18.25814063295687	-19.34660494627215	-21.12866032872978	-22.56421451740619	-17.96400928625243	-15.05705890328733	-15.57452984244128	-12.63025486762893	-10.86952250709413	-9.570519206556639	-6.931291590303204	-5.635264712606443	-3.927245639510431	-2.035739197436385	-0.7237670616781884	0.5536489833771157	1.86716540592306	3.11525447870315	4.522545075457117	4.400369839362043	4.457548116784722	1.685658814961414	3.876109405783438	4.933653776766391	4.402957160930612	0.2418119577074549	-0.3290613335120156	-0.02279401695881234	-2.946413735111662	-3.651310751945061	-4.289622986393056	-0.1876436919476419	0.2354472408911761	-5.867823642466988	-8.333544884306889	-9.019728141934479	-10.6717988905267	-11.07729812270662	-12.0039433614009	-13.47627983659203	-14.27156231216719	-15.12064872606339	-16.92567558754183	-18.34816304740056	-16.99403221838833	-18.70470693044888	-19.84373280503104	-20.25248777557053	-20.01828971909148	-19.60396444075846	-15.77865859428704	-16.66975286235822	-15.11891402065351	-11.25402479246338	-12.83432446572272	-12.72163328785717	-9.84872880937246	-5.98462399588874	-4.016835413905767	-2.488943087714176	-1.134985517771213	1.226448424033208	2.236932686318028	3.502205542721015	4.842848180187445	4.715511082351782	5.460793882660198	5.376207710425831	4.261406572513181	3.244191909638005	3.356133335424545	6.397501928723898	4.015640411769198	2.371929173409626	2.299401600185092	0.963116237475333	-0.2354105868982401	2.163698069726649	-0.04276485669885233	0.1283778519379553	-3.93429306002713	-4.737114432234023	-2.480948063375479	-1.73965082296553	-7.073387018043718	-5.369633827615075	-7.56927188554323	-6.37084526507175	-11.571286073875	-11.79375867451745	-11.14929413134865	-7.706384423902762	-2.120702901295601	1.565949964033734	4.182862039533063	5.863465404836916
1.77346834323879	1.15812084907526	1.49806443346182	2.062570109851038	-1.883037678055189	-2.896633341860877	-2.695819744411267	-0.9867300090565436	-3.926742584974818	-5.631031865389218	-4.54514221024715	-9.30719962945534	-13.24972806795623	-12.80357095046824	-13.25367794906663	-12.11245077518589	-10.27931499450995	-10.78839749228985	-6.685197171456423	-5.131275487662151	-2.085482654214957	-0.1852569919659004	1.546590681377836	4.380468703412532	5.608669139261281	7.714914324808262	7.698792975431672	5.493395624230232	8.245042265509198	6.218154973352057	8.598941699823399	11.19990024225802	11.50217271665912	9.478762334445378	8.671182643170255	10.63854042610416	11.05292468612095	8.358324955495618	5.97082954588933	4.38542651762333	3.824420655028291	0.8852872575280912	0.2016914419221507	-1.402064516206451	-3.088946772846441	-4.255201958414887	-4.085756502295794	-4.640516953803228	-7.016542445979383	-8.036199501366241	-8.80119543182434	-10.88407316251988	-11.92524459736688	-11.80974734941339	-12.55279519504597	-16.45597774911721	-13.27581313565025	-13.02224188901471	-14.79351138971748	-19.13718036335968	-21.99517971163894	-22.97598781893115	-24.44500448704449	-25.76799490590108	-23.90515091811673	-21.01261386449667	-21.66514475648074	-19.56069206138025	-21.19635740485435	-16.68388293373397	-14.41067461973017	-13.57999963351978	-12.36678376348988	-9.845379845911282	-7.877546539382195	-6.927784534929287	-4.4557974095178	-4.645211413131221	-2.356912001909336	0.4212706905104255	1.473644978816822	1.962762479869866	3.276575910405427	4.451204760836788	4.648835550016429	4.561575582266016	4.742280965551231	5.351383532487432	5.818457177752919	5.888259671324136	3.581098156894768	0.6025622672972304	1.639534023756994	2.992263184124567	-0.8351362349401938	-4.174460656658482	-1.738436319545769	-4.454512162168953	-6.766602653134839	-8.136451353278233	-8.598802509943823	-9.7110865383396	-8.390609309805939	-8.260005171229523	-11.51623080146135	-14.39405088553377	-15.51364701964229	-17.02276388228222	-17.6172804996279	-16.90670834937032	-18.36358384333158	-19.22258890176937	-19.56871731229887	-20.69201359650216	-21.46997073162876	-15.19816734845722	-14.01749237083243	-16.04732911110591	-13.82372362327601	-14.66466577373996	-9.340418364410539	-9.330250384105227	-6.284861737781398	-4.386332740949797	-2.764168887348887	-3.591693178771777	-2.587752095449787	2.330165942273368	2.975389292189789	4.725613319353158	4.689190566202797	5.48146864660589	6.373271919487365	6.32605405639606	6.208499797542402	6.414325896570119	6.886438014171404	7.30900900030133	4.773341652200713	1.829165112929275	2.499804233444536	-0.540611709403322	1.493433250179919	2.212697171670925	-2.266640143352447	-2.920352956513682	-5.506030390446142	-4.358185740747331	-2.840327760599394	-8.895513720230895	-5.43891771409659	-5.465645653240642	-8.823272548789419	-10.28588326761604	-4.686976658710705	-4.995439999472296	-5.740700316079767	-1.35091925683497	1.958398778661035	4.139460255336132	5.462880780350531
1.497035885182981	0.699403654156697	-0.2487816300396162	2.397569286817429	-1.863240994228192	-3.965652626796725	-4.139590384792598	-1.085067149850659	-0.9861987747515286	-4.226239164198944	-4.235623422688946	-8.831460368000421	-12.53400962006637	-13.39070702695116	-14.01702618951137	-13.61352481704651	-10.4043421804991	-11.60593893681033	-10.48883416341846	-4.469713550223844	-2.583910441490104	-1.172365428323872	1.798735391933121	3.277832981262407	5.127585693587946	7.152171209802646	8.181029587105115	9.777791282793714	10.88117746888594	11.29419933497047	11.93643591847507	13.67359570225466	12.63645963888706	12.87495954934326	13.20445903857814	13.96222676007483	13.21364948462218	12.93609597911745	12.33438231311004	10.98908742266832	11.13953815236152	7.711077866631854	2.76903944854746	0.5874722338610354	-1.797478084253896	-3.507184168803974	-5.279089371785062	-5.204933977820815	-6.725993321102351	-6.308762180018107	-3.610160195362653	-8.935023424870394	-12.08960372727768	-11.94273951474497	-11.51861211134093	-15.92093816343498	-15.53879571926586	-14.1694593263685	-16.30798766213263	-19.21154020796894	-20.73934900020825	-23.39631701099449	-24.71099600163456	-24.99081645986354	-24.89623331160419	-25.75771956231637	-24.93344809730925	-18.5465754329872	-18.97011188731904	-20.33525146981125	-14.84529377280757	-12.78479391310907	-11.09301803545094	-10.99607004087045	-8.541926303550156	-6.422792429841024	-4.679230301609721	-3.670594832723793	-1.992657269584754	-0.4952413589529101	1.195866866818335	2.014091197381788	3.554579588245758	4.096886317198937	4.605929433743142	4.989479050457874	4.733558644382356	3.225118488297994	5.124171284038312	6.392021767909057	4.729536330256224	1.990331905746928	1.311745403750479	2.178635292201875	-1.680306171713994	-3.758932978681287	-3.923555146286958	-4.539831861317793	-6.266408283645205	-7.748530009405044	-8.587184384788543	-9.471502456762096	-7.188587730566042	-5.532870412168734	-5.098801584717307	-7.125787893155689	-12.75751847869378	-15.10111025759858	-18.31926526417317	-17.87067870262831	-18.74565669565385	-19.11447537061912	-19.77968370916926	-20.34381647416859	-20.66556072923066	-20.130314883864	-16.97604268727531	-14.2807856427068	-17.08755541831664	-16.74892075336305	-11.05293844602642	-8.0050515594084	-6.061784590153877	-3.542088688813806	-2.065913461458365	-1.439499811211135	0.2932069945766216	1.737404993531868	4.086644530766705	5.058582356847523	4.795439996686184	4.405123322033376	5.941083901733862	6.427841053116481	7.091239292239948	6.763302150689924	7.748979390442571	8.402357710161311	5.377621376610023	1.361033856827589	1.531883240173158	-0.3560816272279794	-0.6206790183823045	-0.5183653234326471	-4.322542156784777	-6.069590166137345	-4.803766119234751	-4.58443307487272	-2.022243089392703	-5.916790063031556	-5.527022067304415	-6.76049869071926	-11.1879530923913	-8.450683106613099	-4.109678864174725	-4.03581550659959	-7.793781305061884	-1.113284880714446	1.902402598669369	3.540528981920431	6.131880257091268
2.647350268602281	1.445515370550766	-0.08784325699832607	3.558533746432033	1.127940079133452	-3.277115843843603	-4.819785981998336	-4.731594641322204	-2.424035842379624	-2.88353975517856	-4.478276941625211	-7.762652408557699	-11.99315171327908	-13.48875665570068	-13.99742406997279	-14.07265778540796	-13.70838671130485	-12.86301587248204	-9.669879046544565	-7.838800988213904	-2.655127697146895	-0.7105118114323545	0.6138804169103196	2.822775339820566	5.293566005265291	6.923765464248106	9.259435658911627	10.87425712867287	12.48061663658683	13.11824579416964	13.42151132728827	13.10959120042099	12.9695305844873	14.95092774946659	14.97659025422814	15.16507233286632	15.42982833449332	15.24176774399075	15.35835695150905	12.79907875919105	11.69537412370937	11.31057340140433	9.31428338719104	6.484507832732106	1.502268192622921	-2.862206925197711	-4.408084889197312	-4.578216135200421	-5.697702414727019	-5.854793431687142	-4.717131060794657	-6.366552957598401	-11.88487827599306	-13.3542397326799	-13.60015050885437	-15.63555092470875	-15.37020369798461	-13.85634475520749	-18.16834810859552	-20.96264408625368	-20.81420867029226	-22.24587399941871	-24.64329786812053	-24.6102860515017	-25.00231736569486	-26.15226870594384	-22.07197845436411	-17.8468239982322	-18.13630371602403	-18.84449757114811	-15.04180886572544	-14.04984403385646	-13.01338216218687	-11.02033969807314	-8.318724253933794	-6.806206709215303	-5.156963719475755	-3.438422039374018	-2.533602246342127	0.3168686356505077	0.8421754309858329	2.613407503586473	3.286611001681933	3.941146109568933	4.26971129090191	4.804626774333883	5.320487013389311	4.427012237523002	5.537833270998249	6.191706821283333	4.821513332566269	5.258629807179375	1.841310613212556	3.181722511906116	3.23835358295986	-3.006356987675986	1.467955832840971	-1.770149505367385	-5.690093549883954	-5.860623363675415	-7.832915432138122	-7.956950283436072	-9.049454617886454	-7.31057486016681	-5.836564303422335	-6.057747312307242	-10.58856735876293	-15.19618322805013	-16.47096603557702	-16.99636052503223	-18.26430314560668	-18.87624789803459	-19.98880129546438	-19.86020802803614	-21.73875804140084	-21.73146224868958	-20.4122328893377	-19.68416124774626	-18.78461843158942	-15.72589881201935	-9.898443242530561	-7.796637958605402	-5.630312596725275	-4.033575979978252	-2.609738061764858	-0.6293638160311161	0.8664169543844764	2.029125096429709	3.211141773545364	3.901720176305503	5.316499874606961	5.759449942631932	6.527846555168821	7.662508014662706	7.134268597273433	7.507972920418354	7.381194585550986	8.061548111609625	5.55192728128219	4.295466345825503	1.735204508974334	0.7164156407001201	-1.423396650989446	1.230690791408676	-3.563098372858974	-5.851271709584353	-3.872700074299473	-7.033437233801635	-8.383247862271162	-9.148105427155542	-8.408822191795025	-10.91053359702778	-8.775421400263895	-6.425431805501546	-4.836851335308438	-3.052384894156205	-1.866180354780568	-2.155578504680591	1.264652367014094	3.819620815274675	5.836519498811811
5.147294116034288	5.257694404698327	0.3644160806289278	1.542421060870424	1.575374675470869	-1.980397852944634	-3.969639341642676	-4.681564041855097	-1.299445253264423	-2.220504075175313	-5.863934318100632	-10.53357610483323	-12.91926209140712	-12.56604881161036	-12.78307051609357	-12.80213709858776	-12.579977215849	-12.66260217680519	-11.08711244977042	-10.66519673767596	-8.871152357487688	-3.248384195492065	-2.015081392106651	2.734607141554534	5.257688987258575	7.86853921600698	9.242499492462116	10.52868529158792	12.75840535983002	13.12048679981461	14.19695292554735	14.78559734462732	15.59544667298547	16.33508855697073	15.91108043124365	16.52645302975623	16.24194494447949	15.86294505202528	16.88733342309615	16.10195269575365	14.56394784252024	12.36606307417378	10.80389819744028	9.138327563462212	5.717885550159224	-0.08016522809134585	-3.181815857078561	-4.369718267282963	-3.134290658382838	-3.28378475021043	-2.201687919794722	-5.245547989244812	-11.09108903079158	-12.45429468144556	-11.40088616064298	-14.88639469436868	-17.5824717981136	-18.5053399111261	-20.68486311180749	-19.5179896396433	-21.90509806315049	-22.6968674101077	-22.64753583933054	-24.9281484498178	-24.95335539420029	-24.10258229331481	-18.54109792650479	-17.15504184489498	-17.27248790086787	-16.89126715916484	-13.81687449953301	-12.49399455430222	-11.63839598981218	-9.376827169609555	-7.984266291933352	-6.583765352252271	-5.09730134897859	-3.821714451717298	-1.659686142447867	-0.7150435172747507	2.098782022943681	2.766862289559867	4.052575162675339	3.282189175221106	4.15906669044972	3.548719587157962	2.345145615075694	3.040981060154593	6.111838665907953	5.411705491824023	3.337758222899367	3.319004024933292	0.6981366930698414	1.540436704855836	3.587588753082571	1.111450580097028	2.78645171742221	1.308551281714529	-3.100331314663606	-6.72921223668601	-7.141901816362292	-8.6948626670723	-7.334799856321183	-4.826592494269107	-4.609320777087248	-6.09215167153144	-7.981166185537518	-13.39781056358083	-15.70676952356075	-17.02478753352028	-17.53180069427208	-18.03332535161763	-18.3948963326074	-18.70731913057898	-20.44393303285136	-17.88654430735352	-14.6083129512383	-16.91581120682275	-17.71038218128422	-13.7656947201674	-9.891345137012877	-8.008251134156865	-5.40883521031185	-4.048376907590352	-2.812638396361876	-0.3398841113357776	0.7261186331563749	2.013453756116462	4.554596495294106	5.110038939316667	5.418435635899073	6.366036876008081	6.206697073744408	6.565655806543361	7.013805834269874	6.765781318466225	8.34573159669435	7.854599455784182	8.303254582698287	8.679636078609178	7.886426907696091	2.825946418330489	-1.057840867880088	1.639365901931342	-4.178006132259952	-6.880200228003616	-8.302107206705841	-8.13797739529349	-9.615821280684031	-11.0235927673761	-13.09718482629279	-12.39415859633851	-13.03084400642751	-6.741000478291198	-4.310498700331493	-1.881356182402669	-0.9307866823054383	0.5796778102361486	2.17868735855825	4.495051921184313	6.888593066525289
4.84333576382204	0.9396904235228476	-0.4233369391106407	-0.3017262874964786	2.566920907819679	-1.195809056630935	-1.029836410890709	-5.408205671232736	-8.107922882071477	-7.879373487902001	-10.04212690335453	-11.71603013092425	-12.86168778004861	-13.85563494338351	-13.0057166477925	-8.69314829630963	-8.665932619593264	-11.97995127903221	-11.8764009918745	-10.74354449304923	-9.285241449712487	-2.637903453360593	0.1385953683595744	2.128498042980539	5.133754981815741	7.138765554309771	9.32777930133949	11.48430166209658	12.93379977621532	14.89462267496992	14.05350373444929	13.9188915873242	14.74757588029144	15.54183451614506	16.82442456992425	17.16941639961379	17.62426731933232	17.35865636831659	17.53810697418243	17.09436359412058	12.8455284616237	9.953836956452164	11.73229779973821	10.7706927198642	8.540419322308196	3.592427129155453	0.6789572474601755	-1.992897832634128	-5.085663670280155	-4.722885118250304	-2.070724432307713	-3.933844159435864	-8.645664685396468	-12.91177889752862	-15.12954928433913	-15.54634018349958	-17.36678186104854	-17.19726504867782	-15.97880880505318	-13.95257594355547	-15.22185155197093	-17.62648790322368	-22.71203113389839	-24.83843501830199	-24.35705207315993	-23.84253759688329	-19.04022201712689	-17.18167701859005	-15.77465613388915	-15.08822458911169	-13.36861236218533	-12.15451782625752	-10.70384796831451	-12.92948447979023	-14.46398757500685	-8.186098295199713	-3.897527360450169	-3.655210991516583	-2.703161080052439	-0.7104394482550447	0.4251585196392966	2.334042314241174	4.317262796591365	4.153315093456115	4.978630490079127	3.912928519765785	3.33788353898683	4.599340448139003	5.740212903458257	4.180545259768905	1.224200588117583	4.000707040390012	3.894023384864283	-0.7821921636735851	1.530901284054551	-2.556423078564649	1.097213275110278	0.7508382169691572	-2.461030964624285	-6.405889570322472	-8.233425732767842	-8.443406124688977	-9.217289543010395	-4.972903738483012	-4.744805382634183	-5.157339094280019	-6.302991181419827	-9.964725074927287	-16.03739647984321	-16.86393711023612	-17.12012138144462	-17.83519185328379	-19.64790552765987	-18.84314174968659	-18.99160747571841	-19.43181023991735	-14.81189090330713	-15.20973107827308	-13.65274831143182	-10.13771140704887	-8.633951638919029	-6.927071282224631	-5.87270727164838	-3.698616928035335	-2.408906421885604	-0.5661486867286953	0.6563868732562241	1.84113811120352	3.424316451264929	5.139054769771803	5.594296623443199	5.432157679108911	6.604041526200263	6.670273844812868	6.150513912240342	7.369860515602852	7.822374625042073	7.996325488831303	9.053359099704892	9.123062233975929	8.387569094876312	3.91040753612964	-2.118953837197694	-4.2739930316651	-4.913263567843273	-3.359905531557331	-6.780257508667717	-9.839382636206949	-10.46174308494551	-12.41025304484202	-12.45844796345187	-13.15580056325564	-12.45996984569587	-11.77712476401172	-6.617498094378448	-3.105916212249269	-1.541801279417143	0.03981390463400203	1.408614747431727	3.698733165371721	4.976591986957771
4.837547621832982	2.025898870548701	-0.3718189678955923	-1.686238499709589	1.812745970761398	0.2168550343937454	0.7904718345900505	-2.314414354851749	-7.723796835849612	-9.304199114461028	-9.984465936389654	-11.74351793180483	-13.37436861369849	-13.53776146013269	-14.83871315182319	-13.862295939614	-12.12990351307462	-9.912277466355135	-9.072984741904861	-5.70108236573094	-3.575888033843285	-2.953806020970546	-0.0238751459028208	2.345253464909831	5.43509575495051	7.332740865624714	9.179424897344347	12.25343408005801	14.11380457996745	14.33814352238556	15.63777244549215	16.23554110633592	18.25865830409975	18.25564227623136	18.40704915992956	18.42095079598545	18.93881364768231	18.85763792486631	19.14298495178627	19.74615853364406	16.57407852881494	14.21313380678265	15.42373043689344	13.17502958175157	11.26443474028076	7.020666004010764	6.146671197065359	3.862437233272658	-0.1668500178519139	-4.423288929651335	-4.383399642071822	-3.593864133642057	-5.957746003802697	-11.07874502452233	-13.03496428787076	-14.59546887488227	-17.26666150555855	-18.41394820061441	-16.77040972096665	-13.82669151971237	-14.36138821773966	-17.11365018446719	-21.7924534026115	-24.57494648354003	-24.96368980833296	-24.87443264835127	-21.49277535708643	-17.1310268189095	-16.90647173787488	-14.8624645121082	-13.55480537537011	-11.83825480537797	-11.96131298174691	-12.40284559988601	-8.736385746168253	-6.825959316480009	-5.311124706024202	-4.788139799599378	-2.233733343862355	-0.5537611644058984	1.400377890376433	2.709751022203875	3.921273681929961	4.882134026513199	4.91663418648335	5.054276106634347	5.182162104444501	5.637045027838838	5.432566806077659	6.058726653110796	5.45355035079416	1.88651766434424	2.107651324434812	-0.5821785845902241	-0.2627515228628567	0.6217359978842296	-3.29878843342874	0.08969626985100376	1.101088013740764	-5.251821526703566	-7.380351814255903	-5.885153974154207	-9.687243720656568	-8.77022702112447	-6.465838709951242	-5.337758395449953	-5.542156585586497	-8.315985402306524	-14.44551630819279	-16.44935431127692	-16.95047294379953	-16.97772494700786	-18.70391603493755	-19.17862656045838	-18.54949845343714	-19.03570953329825	-19.33623958836171	-16.03370782867262	-11.86824531144299	-10.19044786451633	-9.166198374822955	-7.887547145179212	-5.335841933899644	-3.619432028917061	-1.893660632246565	-1.258167386918103	0.8688071894956693	3.115458947931359	3.731760421008801	4.881993191264314	3.669470321551785	5.406913463064086	6.008091719813592	6.905136258105699	7.261140703118599	7.696001063308074	8.122269028060998	9.241090356556299	9.279061807134667	8.597736396083064	7.649859487194362	5.131828876600423	-0.02951854230468598	-1.991725846262511	-3.983323774347582	-2.639376214895265	-6.796162997327485	-8.944002827200507	-10.79274666199643	-10.74996045418368	-12.25898720678333	-13.12041275354665	-13.18529972191317	-12.1019146697891	-11.03900480952507	-7.1940532910358	-4.329585967911669	-0.7896150262441211	1.8270950107555	3.324072620433697	4.854828000393297
3.55506119329192	6.283969616033801	1.507005915276068	-1.170202375185227	-0.3296049878875351	1.162599991517538	0.2822312389612875	-1.085827304458633	-8.313202877494291	-8.492368313304553	-9.061183429035566	-11.2302512793982	-10.54054843044139	-12.74075005473094	-14.59251473219814	-14.04290669955634	-12.95613913840174	-6.976914444458828	-5.020436626263631	-4.303948040307034	-3.053917975740376	-3.101875624646027	-0.3817435627798886	2.596538722528464	5.235545372976162	6.835941877635548	9.065985701007037	11.63878519906757	14.08673595424574	14.79544661001438	17.29674009112335	18.49384581666948	19.26719792529758	19.70812364470225	20.65249625639029	20.36036428775333	20.41008385187968	20.85784514615176	21.09188795724481	20.37515726953109	19.86697053973614	18.18467243348863	16.68637750177675	15.04372955898532	12.44165207009843	10.5026781155741	8.677566672949581	5.826632022885974	3.527194220756883	0.4575652597804947	-1.839034295067222	-3.075975149141982	-8.697859169998708	-12.20590984611579	-13.41256664050746	-14.14962109463443	-15.72829984853814	-18.50860405523338	-19.01076713189218	-16.50457737972437	-14.67505938508941	-16.1513822757185	-21.46961031715716	-24.10254581521957	-24.34134322077847	-25.57987118712066	-21.9743817948937	-17.19736763048718	-15.90781126681912	-15.0967758055682	-13.43985933197581	-11.69129704045758	-13.89004506188661	-12.37412754653479	-7.320510266658687	-6.641763123192504	-5.595329703085952	-3.35980447784334	-1.326761178503205	-0.1148018530279273	1.747730489039554	3.375231795879643	4.377342496572396	5.726729581582845	5.003095530014377	5.051843163227659	5.475381257097524	4.25513737031298	5.887204755778612	6.088880994853298	6.858331600924714	4.856842060373083	1.198912552207446	-0.553149593927742	-1.677761041570534	-2.67727342003684	-2.922227567256584	-3.350157889981745	1.112302733451315	-3.541886519839522	-7.433768600920303	-6.898860731543607	-8.661862257464293	-10.10833118894084	-9.783141510757446	-6.544152980576769	-6.500436189147024	-11.37604749758265	-14.61537395783319	-16.44420797054255	-17.65786241755109	-17.84518246364786	-18.31545603143388	-19.27045202592745	-19.35605635361151	-18.82325288425994	-16.85334703295422	-14.63446429325245	-14.4442967713706	-10.31031412933987	-9.698792920370977	-7.332794762730202	-5.892768453334497	-7.510572452384679	-7.407225284824221	-1.956736903242017	0.3200561232162613	1.994321476648338	3.123283929951469	2.424265494938027	-0.3081207833132567	0.2869011486415616	0.1548757958036617	3.004978709347427	6.304017650254366	6.247871789752367	6.615860306051729	8.050097383782543	8.405679721616025	8.965933029086614	8.513407970246078	7.396356299674437	0.864597168148407	-2.948929009908568	-3.660325055045575	-6.188334997633433	-8.059573363738423	-7.99122876718377	-9.100486127794795	-7.912871798508718	-8.264022624107611	-13.51150966506128	-13.35902395953514	-13.07937151600231	-11.78940132344155	-10.70501085452867	-8.795922973933273	-7.834897648567505	-5.797289864219579	-4.582704771177077	-1.585095559808906
2.558212975003869	2.253620651599874	0.1537255005937368	-1.917818213885027	-3.555539893158709	-0.6493111326032022	0.6095175973951541	-0.5358738541671073	-5.018622207003318	-9.418380789202502	-10.67493303325739	-11.26114712534445	-8.965340730822504	-10.64539181890194	-14.5145884752169	-13.69865070670562	-11.18920479931188	-6.959510385033298	-5.925861417841872	-4.837510464688705	-3.391162375498936	-0.5254078887006699	1.367612825895492	4.025653138478617	6.662312635076091	8.869795145401099	11.47738557250216	13.94372375066871	16.32306115984238	18.59175967636583	19.36793619200409	20.09534824890721	21.22441860365871	21.81748538031718	21.70003881182373	21.41615000746617	22.54443446531144	23.81564441026813	22.53085838833749	22.10267413046739	21.27386005597896	19.47244264287775	17.64434703142615	15.90324609468263	14.60410595267535	13.59953961391687	10.17254130369446	9.322329612565454	6.934256908477266	3.825465913076187	1.155017662508669	-1.065074613212403	-4.564425524744991	-11.15196219822889	-13.0555264915908	-14.63493671873499	-15.68945706795807	-17.34598780244971	-17.50638458043846	-19.302297110361	-17.29661159844676	-14.19613035544728	-18.70563540199117	-23.97874322892369	-25.48887617844559	-24.71066156956971	-22.32600176045651	-16.08445785405024	-15.46907352542087	-14.48819954037066	-13.1024390261374	-14.42587169380153	-12.08243384195697	-13.0431575429144	-8.890150937868157	-7.107392493174302	-5.821239271611375	-4.263504131310185	-1.474825790112334	-0.6661649897365578	1.225536214490717	2.679019013188622	3.322137107540698	4.006910864526787	4.720163527229715	5.485534701506765	5.446871647117803	5.151347717695216	5.034142726275604	5.172114665342349	5.733573259863647	5.132933707945085	2.591802439356115	1.243508494995467	4.291263675618609	3.60045119873979	-2.675446132891693	-3.916279434854459	-1.11835382127083	-5.844903421857964	-7.104927013871929	-6.454045246469377	-6.267862867619897	-10.74524907085458	-10.41065270148727	-7.841963218063711	-5.306537347049129	-7.809798167691042	-13.0947169222751	-16.26644857126649	-16.50707223808325	-17.83939696812519	-18.56661812723803	-19.4407757718181	-20.37971452701714	-18.547074472931	-13.99594504479705	-12.65054723995428	-15.66245253856476	-12.23506357170839	-9.618297211976483	-8.056031662927069	-5.74773349633017	-7.34063144007041	-9.438013981494009	-3.112663882052345	-0.3583454234810119	1.145777374490478	3.040320430833958	-1.725837514979503	-1.920400511035893	-1.28858824514765	-0.2808219916984172	-0.2722704934749913	-0.915202248054527	0.6179635945884456	1.583995215096536	5.23157385988867	5.729609596571891	8.347810635874339	8.672879410086807	7.804846863007356	2.0705741690997	-2.398781820503359	0.4801377636592292	-3.24790501555151	-1.242065059723416	-4.983418159325595	-9.384262837672622	-11.21038560135662	-12.54843484989385	-12.19633462447263	-12.97804476081598	-12.26129685124749	-11.28058701251445	-9.06338016994124	-3.485698720079256	-2.071172940425924	-5.259248415267223	-4.588372123985152	-2.944766672586013
1.430682665182587	1.435562469502486	-0.07571785072008197	-3.141394605742619	-4.13728306760629	-4.764323208124893	-1.914375973330152	-2.029900208171455	-6.492005312547292	-10.33944665677984	-11.85927400344167	-13.3911813618534	-10.02339845207126	-9.005582761708297	-13.73276498875589	-15.26765486429355	-11.13453689617864	-7.430855299314658	-5.817892305575299	-3.85649088281383	-1.881592630704176	-0.1325550431757279	2.287077116899582	5.476380018179668	9.091364712933853	11.5704728592932	13.35327602853312	15.1047528206048	18.00256291572657	19.64514231726218	20.88231032537237	21.4980941136061	22.69624749103718	23.61919776994205	23.79998528969622	23.32606280751264	23.30094443690302	23.89294434943503	24.06726321794991	23.48314625485142	22.04513237698484	20.72627839338259	19.84266639246886	18.8029475354416	17.93728480956736	15.24867919276244	13.38903083008989	12.11898815642002	8.703327678337303	6.196196354847814	2.927270534820764	0.7333767927035524	-2.472001355231384	-5.840076219938339	-11.63394023883308	-13.06043273598743	-15.40915304449447	-16.88409141015285	-18.04301150472463	-18.11604981827861	-19.00849425543515	-15.95699165665371	-15.83363132357613	-22.57506350488291	-24.15988089111028	-24.56103132375574	-24.04861608662196	-23.38449036369877	-17.95630455463532	-14.08664755363253	-15.34532217511907	-16.3122628883234	-11.38243451087516	-9.883226015436549	-8.448801595016448	-7.108093791237422	-5.285253129423438	-4.430108242425547	-2.513365937213905	-0.3147063335134135	0.9085055900080761	1.979486610097297	3.633353024941471	3.235512337455361	3.265679015052001	4.295442689957781	4.866191212843319	5.372930851246451	5.36782380517127	5.248849635111014	5.457257762603319	5.795934872447276	3.425417318193922	0.7312554089953096	-1.618213590273228	2.439447938568549	0.183495210729177	-3.265300935623259	-0.9312572849602816	-3.6405485047718	-6.419271978419886	-6.81664578011339	-5.171616413597235	-10.31774980031645	-11.51477216672185	-8.871313941885944	-6.067105294203543	-10.16476046205906	-13.57761120713548	-14.9369511781149	-15.73678449301815	-15.24496370001407	-14.91609604436098	-17.11170685738529	-18.58221371514253	-19.7372195895706	-14.78890885592079	-11.34306568433857	-13.01341195384362	-11.21968673777354	-8.706153466600995	-6.811420940917287	-5.186466662205476	-5.918843171907724	-5.605767866669282	-2.061646611905417	-0.5852520757556476	1.931169423780432	2.238939604683992	-0.4621664252815663	1.653103357793668	-1.421314145578037	-0.8373867431403141	-0.04762484416113466	0.4111306130780008	1.31223223702176	0.8608352825729639	1.943160873538034	2.519581919336247	8.500625372632328	8.212104067427504	6.110583950274531	1.461980334101952	-1.511974654438518	-0.07386386611136686	-0.2384573710144764	-2.63741095143746	-7.167513101062411	-8.088999632991033	-9.524142615449477	-6.240564523841726	-9.89166170647519	-12.92292818019013	-12.53197456409055	-12.2980334282301	-6.752858852597114	-3.298273928699302	-1.125531115000399	-0.124446636955895	0.3836491856604312	0.5309004007888802
6.737512967503676	6.745341518138275	0.6746475347715091	-3.379218639283579	-4.687985504877474	-6.142138474866215	-8.041227180231999	-8.721903202471537	-8.901715806815275	-12.2357224624858	-11.95426721922263	-11.67107047384536	-11.17855458001299	-9.765107965206653	-13.39124921958268	-15.40913698986992	-12.22985104761091	-6.98271404743349	-4.882149626808939	-3.042193082510153	-0.8145272234164054	1.413586177297702	3.895585512404409	6.72150256690486	10.15252467453405	11.26225568378766	13.17756520849485	15.56002403266848	18.96274616705261	21.09718832012317	23.32224319780426	24.06924234541128	24.44364155829646	25.29539353460933	26.04257919117293	25.70736310654718	26.05540106362787	26.47131479918778	26.17258281633542	25.07136550368989	24.91562117760128	22.71992211201626	22.15198376311679	21.41179147263085	20.77293265847442	20.24238107107448	18.03110515325608	15.82298920283517	13.76425964879479	9.9996142952063	7.202660104348922	1.976685563568992	-0.4547168012153406	-3.675429221075831	-6.365180672314182	-12.54032373766097	-14.30120440592054	-15.69323675283539	-16.82234174610079	-17.81536753349195	-19.21005623081663	-16.6881830171526	-16.4156519553772	-22.14788471506461	-24.31477468249955	-23.68102286543785	-20.20180457516329	-20.32552227813716	-19.02221359392877	-14.50362067369969	-12.48199066360945	-10.63132359901192	-9.906846906605097	-9.396604502934963	-7.324608189754542	-6.282182085305465	-5.734423968746569	-3.405448535513415	-2.123866764546563	-1.697086050273754	0.5437204749771922	1.293814765394302	2.339773855154021	3.560823651581927	3.952004475466879	4.601074655615378	5.094166931039638	5.195282472734448	5.261585503147387	5.236882860496564	5.637476639351689	6.496563670384376	4.611710307775354	0.1067899241443229	-0.3418045109839341	-0.6466967862644992	1.793895618884278	-2.964082563120996	-5.181054431092377	-6.55950885571707	-7.130961853004919	-7.285901945265095	-4.308873738857528	-9.348722368154597	-11.4566893069404	-10.87574713464733	-10.39510847525389	-6.803944502830461	-9.402259065089822	-15.41143282058243	-17.15269511276085	-15.82657596596374	-19.54779511151207	-20.29179207227526	-19.72527689608097	-17.19580001854831	-12.67817293494733	-10.25849758987653	-12.65016319034555	-13.38294039448715	-9.44465962604545	-6.102706488539468	-6.5327757419862	-6.607300900194787	-4.16988420178086	-2.147950444964692	-0.2309728264659157	0.9159425845750775	2.188345401160632	2.159917644907466	3.832103693752856	3.306228742095129	1.345184031638951	1.405874694291072	4.824198587065553	4.703009819379361	1.479684824488402	0.3603765645436283	0.4847999260446159	1.211098627139904	2.957273784277561	3.512671709532185	0.5270065932537591	-1.761196113285962	0.1606416314446619	-1.24545073387344	-1.740686890789732	-2.804090363156035	-7.221515110026701	-9.124930331445	-8.399759012427012	-6.604852997863873	-11.47103187522634	-13.45932412144009	-10.4952235183913	-4.605958554679148	-2.850267516006852	-2.171037561412277	-0.01194820497738647	1.933293716889068	0.5070762826841815
0.8673753822908452	-0.4675632697673677	-2.752114858127698	-3.195901749707218	-4.853456275480539	-6.164897943840458	-8.719946894341831	-8.404211915510928	-6.991613536764476	-10.03552189931884	-13.26524781454515	-13.83835730743857	-13.97273571913024	-9.930014089644601	-13.33749019183387	-14.01265688831103	-11.61191356771343	-8.023501353862912	-4.668697263356819	-2.777482632113561	-0.3895384384349541	1.759885621502747	4.757646698980409	8.017042651813767	10.79236241708645	11.94573004151067	14.58179844494174	17.24518222718535	20.59840842959397	22.35590260699945	24.0067642780254	25.09191315659967	26.32941727791052	26.09416305151194	27.21295317249343	28.58575669705704	27.61324414541923	27.67055361100648	28.38696170688536	27.92512308865162	27.71187302244573	27.63095812522164	26.10596100133159	24.70644980078617	23.89434766902394	22.13780103193466	19.79138619097898	18.02230442403464	15.58158889694323	12.41498812976346	9.00250514204788	5.403042556955882	0.8602975112414128	-1.263377357818399	-4.038019674123404	-9.957811658098478	-14.98651256904725	-15.96663795465633	-17.46494050042361	-18.38022870004664	-19.96508150878645	-18.75342490629015	-15.50970051533477	-18.53709126395302	-23.81266211975537	-20.15527081302389	-17.94674182756552	-20.82456263524642	-20.39758174526338	-16.66644391456316	-13.48861879213382	-12.07406022913938	-10.68023624298365	-9.662369374274022	-8.65529300342024	-7.395105888710248	-6.070400178245222	-3.897099547461551	-1.909229615181516	-0.6272233670355263	0.549183468046067	2.346193238182991	2.927109802517407	3.004574862483537	2.304744579586043	0.5591984846843161	0.0130766102695361	-0.1016762697384479	1.704810107220737	1.516293902589155	1.694429399082935	6.083639922362067	3.959534952771776	0.1237039601109586	-0.2839662856237624	-1.004558652384731	2.712490116620017	-2.386267399622625	-4.102720468770485	-6.549709921224689	-6.238553741889802	-7.424440273068569	-5.47512730984505	-8.454833069290771	-10.38676144218681	-10.87874605596227	-11.47387704200361	-10.52017297267321	-8.77393522901707	-8.824550694035793	-14.53632936915477	-15.64435232155955	-19.4635071733025	-20.73106391068194	-20.80177841976246	-17.31438327199595	-12.67083672918636	-10.84085543709682	-13.26703341097283	-12.58759363561558	-7.409543914703022	-6.969982050917622	-4.650258617589202	-4.122347431150047	-2.891679417007026	-1.781984193064943	-0.6965111622750442	1.126855726531005	2.6480212460296	3.894241569780945	3.368152432640443	2.822750148344312	1.652086209290587	0.9136939243692836	4.865346592470871	5.014233079746248	-0.0977414753759831	0.1295472911708089	0.3736900697899159	0.7400920226188532	0.1149006919955582	0.1431237551310574	0.5952232922891767	-1.752680292387481	-0.8852981588433408	-0.5838867205296765	0.01326204793713259	-0.8181705639359507	-5.162766769035102	-7.556413020608659	-8.819612187426685	-7.958513678365136	-10.22164062129303	-12.89482565426471	-11.84172173901055	-5.656674245649526	-3.114608821845763	-1.337179271745924	0.3576427497998793	2.235175467587737	-0.6228108253955611
0.8469683824661161	-1.996726072243575	-3.460928289864512	-3.849969478186381	-4.89682143059116	-6.717224688967178	-8.360727474623786	-7.648587863013177	-7.863453192962766	-12.72651669225951	-14.3395457793913	-14.16490108717937	-15.30232500728249	-14.9212678433193	-14.83040030085067	-11.70624932760421	-8.654243033971454	-9.106874719865459	-5.004964165600768	-2.668257406011833	0.1570401564813437	3.515493825616318	7.255195900276874	9.802441410592564	12.49584360375422	14.53647154801894	15.81039594974976	19.75643613793966	21.46088607960388	24.62685023521624	27.16535908025082	27.32729077145325	27.70229009460274	28.87227613287644	30.55397380995413	31.05536006848888	31.1718752595101	30.70601328484923	31.55531607256353	31.73854038527435	31.85310615248494	31.56174620291239	30.2164042126148	28.24089152156279	27.70390264214819	25.4885135217242	22.94754132891438	20.39048718468342	16.5262705097341	14.3356708513021	10.82266868300422	6.461197415891888	2.502158154964491	-0.04832589366270668	-2.622774232663062	-6.436051241397649	-12.11115220826747	-16.2627355758849	-17.5813829880596	-17.78857177811841	-18.86244293909459	-20.28178829482209	-18.31043254114479	-16.72730503770509	-21.70761213381581	-22.74655566837606	-20.72664189546015	-17.01412264338762	-14.38813750576503	-13.29278172789583	-12.61006751445785	-11.13365906418954	-10.50184524225392	-9.580107278087439	-8.782570335456626	-7.983551275690274	-5.787859800047158	-5.509410253785063	-2.586615417981761	-0.7746390594326158	1.029649045605652	2.196147942515609	1.516191811827184	1.291112365613685	2.265846958455029	5.185974737478546	5.551268594319197	6.631980230223007	6.76346726619272	4.068731064482733	1.338144811576228	5.789463124908025	7.608186863847436	6.161499683600255	0.6371679085168012	-0.6802226952415822	2.550728899068133	-1.815905711984669	-4.756545546970301	-6.633263874333352	-6.84902317213897	-8.189551412452147	-9.364808520290296	-9.068602888598093	-10.16816866074208	-10.1641551853225	-11.68457102756588	-11.65589094725891	-10.05344520962888	-10.51200886076481	-11.27755249361559	-17.90111919558848	-17.7558748839744	-17.6157368336834	-19.82582242339055	-18.89399415324721	-14.87759981874052	-12.61749977544184	-11.63704522212288	-11.16611178167341	-8.041793114625591	-6.985586538160078	-5.035318560112557	-3.960516469460686	-3.410737820204417	-1.490509835316345	-0.3969225916364394	1.657122679368968	3.026616818289028	3.478921143242417	1.593530863767967	-0.3109161422830766	0.1099267598276583	4.538397933443264	4.799837484168506	2.522848100962676	2.355042401478443	3.053269703879778	2.340482658897542	1.372899443312065	0.2846028225042119	-0.1511835464704632	-1.696366963016089	-2.118595815190417	-2.701839087275118	-3.600589436973678	-1.129693326537222	-0.5799121337635711	-6.385079305673969	-8.098916896758283	-8.726096034088584	-8.400955903624435	-6.650597669829438	-11.01415393872708	-12.41120877455865	-10.82858986700677	-4.975735406731417	-2.191432006621028	-1.466716565593629	1.044639561462475	0.3372177418996216
1.864755454848307	-0.7631152248413287	-1.838403847866857	-3.352557115568629	-4.762664481163768	-7.116442643749338	-8.428514510486707	-9.425601199452558	-9.453320357625103	-13.84221560753286	-15.99921288140382	-15.9412344552473	-14.65257073097291	-15.12601003922919	-13.53896482296159	-12.08141504619471	-9.824617229653882	-8.937756073072251	-4.480257706273449	-1.311447730911084	1.761837343958803	4.580973969572426	6.912416357722577	10.31062607726165	13.99901784181054	15.85697271284448	19.72206773478621	22.00602595392508	24.88165604869693	26.98089494253099	28.74434730001775	29.30759266999638	30.222638098321	30.54406832148703	31.24636009601056	31.40890425554875	32.35855575565847	32.87063360718588	33.46454066684578	33.05471226165133	33.82428652098935	33.01931532038276	31.15674402914874	30.08425040704225	28.84841679341656	25.54924970161574	24.2706544560188	21.85359918763942	18.81606087690938	16.02104150970615	12.04764647700085	8.408223602506496	5.465230044435771	1.394753635880591	-2.190102298326224	-5.6222146534285	-12.05997202366547	-14.14792490511815	-16.06375889065845	-17.12415167464286	-19.11684826475181	-20.80192324608441	-20.46242295934218	-16.59219665850253	-21.14005794959542	-20.80166363219041	-16.53779345372919	-14.74725102614912	-14.08935543342926	-12.89882250402496	-11.78598953937797	-11.33678052673611	-9.495938577803201	-9.355972948832743	-9.114675325732662	-7.534445865210387	-10.53304910193606	-8.71191934289692	-1.916049607031482	-0.3798788688593504	1.524365000121293	1.36462915177998	3.666201730022181	4.476543303473136	5.422577228629905	5.046596980288996	4.619525219404125	6.255524421830614	5.905952280491249	5.517301856620691	6.669478162180212	7.077169101379809	7.281991260508789	7.616823017010631	5.080091041558944	0.6948393340783809	-0.5282175726183596	-2.753071226728821	-4.024314616951017	-5.84589890468817	-6.513526935401671	-7.516422732505191	-9.017216231033501	-9.21705333521902	-9.58540034409873	-9.734350727551544	-11.07278438239365	-12.78976159346928	-10.46617012294712	-8.732317904902061	-10.65268431369111	-14.2637220962809	-13.40547081130597	-13.27013443786353	-16.54126401721572	-19.09193930231851	-18.65777093086268	-16.60049446813889	-12.36104931749145	-13.4960076487107	-8.526875663515398	-6.981388327702803	-5.550673740000775	-3.761315777115385	-2.163716024013695	-1.415748896630589	0.1566577396560547	1.455021839921244	1.894194607453244	2.271040787364711	4.611362991972101	5.546743422096881	6.417986016349971	4.993644786914615	5.731705627827409	6.22750229810697	5.831168707760412	6.420091830901242	6.750734131525292	4.646929748472871	1.400531487177773	-0.9698896932491721	-2.042972529235726	-1.49049126875633	-2.972280511240399	-2.831475985814222	-2.242383154371566	-3.37702957601249	-4.091030719365278	-7.723096651450135	-8.400029623534692	-8.885856719267281	-7.800111813496642	-10.25581828562719	-11.72691280121722	-10.88369754534324	-9.181683905189232	-3.123149928602857	-3.534913557821142	-5.031146597058807	-2.588341646354991
3.753848304152427	-0.427986756673306	-2.068942972654725	-2.618073786106493	-4.91833045979115	-6.044478886908223	-8.199939619977783	-9.489367351161889	-11.16444134039563	-12.04375342396906	-15.79772851944131	-16.15842051332112	-16.14703299012137	-14.83301270451682	-13.79032104695665	-14.11201372861223	-11.96038475367163	-8.070940238889762	-4.111552276798761	-1.329635838284105	2.280464146026532	4.465600799899903	8.548852910440758	11.31667922594255	13.90010941845543	17.7683474376384	20.79728672865332	23.36566048657545	25.49064740799292	27.28927754868829	29.33210596537236	30.15109075309095	32.28601401152105	32.37103548707233	32.08888484385557	33.44327546940286	34.31888877195405	34.05875299529987	33.75837689141008	34.82754598122631	34.07686997785748	35.10301953292378	34.51122036901273	32.25884589982729	30.33902215916959	27.81628537351759	26.15157178160916	23.30874042697747	20.60108561849398	17.19802997481696	14.10104555884379	10.03623493446531	6.448906024903806	2.68157423279257	-0.3569066027592953	-5.358871039492158	-11.53598291039248	-14.73199664382634	-15.67557503971102	-17.88794922246717	-19.10176098342913	-19.75761646938759	-19.62700937172133	-16.98911007845066	-19.49852790590882	-20.43844436509357	-14.88507298164853	-13.34140066842349	-12.76154965953299	-16.34640470192386	-16.92807534646329	-14.27482557099574	-17.0592736587933	-12.33449557025227	-8.47330057268357	-7.140587465663202	-5.821893087833644	-4.174652885547118	-2.676673258136759	0.5920608370077503	1.610806541116631	2.603650719611551	3.250245512818879	4.046742507964439	4.145255193528556	4.580064126712671	4.9896177734297	6.440231476848055	6.840608658633812	6.84410154289327	6.233572294071109	7.282579162923298	7.417110125785712	7.058264096851758	4.560259690574298	0.7793815629823939	-0.947212082176236	-1.629515957098704	-3.202786565743054	-5.780050542020547	-5.355163213761784	-6.667320846892835	-7.83823232537452	-8.81273906293967	-9.338698109509835	-10.12565336877367	-10.85015621891256	-12.24797067946059	-13.58552935110328	-10.73823755840533	-10.36982435513266	-12.7785513405733	-13.30014152384416	-15.37715975303047	-18.56913031493121	-20.04950693503571	-19.13264618269142	-16.25243687484055	-12.48875648353732	-10.86358823043088	-12.34649834384084	-7.655562850168792	-4.968026600397195	-3.763970932254097	-1.91166633692751	-0.6807474436772054	0.03057285973142143	1.490120918707134	2.993390826947007	2.681337833829957	3.175767498092284	4.264579981564623	5.242237766829248	5.992743891418854	5.533872657853863	6.804937589577719	6.032431214102189	6.608284949473955	6.603572767414846	6.028498131886067	6.238205265320232	2.262280649592697	-0.3544326699793601	-1.513246861106381	-2.487799974919028	-3.10706837847215	-2.362087488483894	-2.009339752804067	-7.043783919539976	-8.340312762205713	-9.450254955948083	-8.819669184072211	-8.473717748547415	-5.971949656733329	-6.016618824792261	-9.087471851697785	-8.375845732995572	-6.995818697566051	-2.527096188912708	-2.700757179484356	-3.274274278338112
4.745362916147997	-0.3603340889965807	-1.652290870902391	-2.952968999634152	-4.091862130004472	-5.892184074360216	-7.854812916920139	-9.839984620170185	-11.3847473919563	-11.57339962973225	-13.52803085272029	-16.00975170373397	-15.81754700223729	-16.19402542174834	-14.57021145378883	-9.643921359774197	-9.033597296810115	-7.483096147453807	-3.206485634475712	-0.1180673967929238	2.035207139798388	6.158547561744342	8.541484357376419	10.97395619019483	13.82565335381804	17.73391142046887	21.26298265613906	23.65772476008726	27.01318279413994	29.62932092840811	31.05003216977553	32.61509181013747	32.64190210117204	33.06442855074346	33.46957760620035	35.12504666156144	35.85027957962785	35.61905476235461	35.48748408894897	35.97961711274377	36.95362509179478	36.15777813295216	35.83786250785397	34.82138400285783	33.35389867178321	30.81499173621683	27.65986752954939	24.63797966938967	21.44874839583963	18.81450158653769	15.50642587906913	11.84409246037114	7.595379936320001	3.129203409997615	0.0470383481926433	-3.806350965774982	-9.459304431994383	-13.30637084676698	-15.37066956379249	-17.55090307363321	-20.01447844153114	-20.73778374658957	-21.5343987403661	-21.81387427938449	-22.29221369440279	-21.22740229058206	-18.21796992671563	-18.74417575282831	-17.857563559791	-17.79397554025917	-17.71223954816139	-18.00400911491136	-15.96790529911175	-10.19168953902255	-7.87954987659333	-6.824323204612085	-5.656267114045875	-4.377965079282717	-1.355131657030142	-0.7303168920478242	0.3801183472826324	1.326694825136769	2.121040399558638	4.239203819244551	5.263469555485926	5.511601993568206	5.059037696292023	5.868029956196665	6.110018427555815	6.625527535093852	6.479348443667675	6.387483001835108	7.486259746211374	7.533637924250229	7.355542291876191	1.314514544383428	-0.9852392141153814	-1.98868772148893	-3.458385998488097	-4.908646789027557	-5.51405966054034	-5.968537236799875	-5.289855302526917	-3.046578081577309	-8.116578896354781	-10.41926222649715	-11.62443739977698	-12.50894612315238	-15.28188873907629	-14.23734561266923	-12.76311430651725	-15.30710768428463	-13.90237689590646	-13.9126638767828	-14.68177502564072	-17.61755862818109	-14.34720541709328	-13.99930875297656	-12.32268667979912	-10.26171395675078	-8.809726851597816	-7.659812164362961	-5.62332711373034	-4.374471303511939	-2.344190907054895	-1.412071000892183	0.2877809290345681	0.2188124965827569	2.821055708664176	4.437518825215875	4.563010321954891	5.154745494034557	5.506023297132799	6.331038778155857	6.363515972768084	5.329867463053233	5.744946228937238	6.796388161181369	6.505278558415625	6.935010104067374	3.736488200351346	0.04433140206026565	1.815572165236745	3.397896095795886	-0.005374265664499944	-2.518330226834848	-4.285899809604871	-5.310925873340807	-6.816927362492208	-8.360972558659796	-9.935699375048785	-10.82213415234514	-10.44959584684847	-6.540392352342622	-7.21221669310421	-8.938798265126991	-8.541340064049166	-8.353208587911183	-2.745856517675179	-0.675564067101277	-0.2148221909949939
5.304964990965914	-0.4185849004458646	-1.645719984321943	-3.242613625753506	-5.352388527178505	-5.171103444428638	-6.949297058788943	-8.515459098916892	-10.93151018534252	-13.24287209491433	-12.22747055122693	-11.76292719281201	-15.70322257014396	-16.33935952455897	-15.18252679946539	-10.08497675196833	-7.553629099719785	-4.975070499693913	-2.796495477139388	-0.1082764846109967	2.765884399893821	6.782118744998684	10.11651438379533	12.57595845855394	15.86358904350845	19.80605396970492	22.59119936186892	25.59509514031288	29.0546413115681	30.49270688260884	31.80514852023077	32.07691382543425	33.58969684410641	33.38377712488136	33.9793035478495	35.69016306341541	35.23499784664546	36.3297022607623	36.59673284035586	36.04874905458576	37.08628625337258	37.88685518169109	36.93862233918588	35.24835865331914	33.52250578343444	32.13721196801936	28.77977998633457	25.70930181832489	23.30580017295944	18.94346606963074	16.02469081092579	11.77511786224494	8.092155753656471	4.115388938070623	0.3102252128394412	-2.174608283441103	-9.303119239440377	-12.93707430496988	-13.8856078757338	-16.24709302912214	-18.53734225690738	-19.72091147498389	-21.61125000131983	-21.94913542238118	-21.22671442132275	-20.70095919384477	-20.26582278526234	-19.52874900443624	-18.88151588756966	-18.79004851977209	-17.1932783070252	-16.96140675685189	-17.01132668366301	-11.52641739027695	-7.875432606719187	-7.341050321177363	-5.603756198835129	-3.787474245527051	-2.462891433752986	-1.366103557401289	0.9098275985039663	1.785078304576587	3.154733001475506	4.164187847833489	4.286292528172623	5.587670921654478	6.156317793810558	6.029565312972863	6.100118750577565	6.380510106594784	7.659592835795422	7.449642662624115	7.729703239840433	7.651630153145788	7.172799780643345	3.542358831202023	1.148416367800678	2.439428744621978	-1.591646633522828	-5.039965568302193	-5.173148907866505	-6.350755581141641	-7.435425440397012	-6.56372197677274	-7.869540669939283	-10.87881915745572	-10.52710574992602	-12.80256354743437	-14.90628930319872	-17.33236545341441	-18.1057532493931	-15.73334826844024	-14.00893892397681	-13.14346300946778	-14.85477980833718	-14.95383673684677	-13.19675855583904	-12.67824817738676	-11.57155650401478	-10.33873118595125	-8.730340216695026	-7.989148906113826	-5.900759529389916	-5.04306006286896	-4.685065099424321	-1.260979693097966	0.7482168953631572	2.712781398349591	3.635504559813285	4.675190995322055	5.317606279136385	5.828456972420156	5.854585238996378	5.734166838673389	6.186686789722785	6.665620942058638	7.131957794887001	7.185393698305518	3.468744446012181	4.49561495394704	6.368754810591554	5.534509769190095	1.144861402434003	3.339438287434177	5.258941025297645	3.538950792117134	1.889808148171483	0.02836845072999949	-5.9001225590182	-7.93775745026511	-9.0693177099173	-5.582654493844188	-9.858140206809537	-11.62878824716864	-7.962647178273471	-8.385000407322764	-9.057887000125561	-6.214903668210241	-2.20788808449953	-0.6491406983293473	1.229758814387537
3.105748939834541	-1.362142816412131	-3.049541813306234	-3.117705707214043	-3.97311346956792	-4.924948792139901	-6.306997158699062	-7.818283061979969	-10.01683252312336	-11.11012340424111	-9.199195311992526	-8.931791297619554	-12.4854971697651	-14.68670759340341	-14.4352656377468	-10.63359488199563	-6.400941986005876	-4.066284653978983	-1.385512982339037	1.151940253736484	4.509957046034117	7.099073675578381	9.709565026823327	13.59595173687069	17.58070011249185	20.20946081120718	22.88569036047886	25.59001196129907	29.01737281295624	31.67660721019644	33.40612424009936	33.64918887761843	34.43780970596009	35.05288411442126	35.80029369186428	35.73165581062858	36.62347447451845	37.29770018474767	37.31553359617749	37.51646752241714	37.60443698439769	37.37974222813057	38.2822663252843	36.651011149525	34.44693899729776	32.34755750412427	30.25831417537495	28.01864822704476	23.72158945765125	19.96091502623432	16.82562510667969	13.71481067097079	8.642965674879463	5.114274462026913	1.856001641008334	-1.118677513459147	-7.445310273601024	-12.75232596267927	-13.51745739855852	-17.00728434486132	-18.58672321950513	-20.22009350165956	-21.58924543407045	-22.03436736556216	-21.1100730547372	-20.74671144175659	-20.179067195507	-19.14543717669551	-18.87644303158783	-18.20333754783326	-16.61369458354386	-16.30020949292066	-14.99733383334978	-8.892032825991521	-7.473424201017053	-5.202992424389379	-4.384004961222672	-4.675320169752354	-2.516178137006818	-1.305485513659107	0.680818508005018	3.494015079371252	3.601117748785327	4.301958480462645	4.645182835986475	5.858700035845857	6.059054979625557	6.439277760280731	6.699692759839138	6.507160733678631	7.609385059770602	8.579139171206407	7.902268442621505	7.281134275513352	7.17287379191373	4.265128956437024	1.874908947686606	2.433491423256783	-0.2906431861373449	-4.52461040879416	-6.129604236846376	-6.786024316196347	-6.869504561974111	-7.34715667950104	-7.755123252497469	-10.3223972279817	-11.11000575006403	-13.48882410532127	-15.02873668086369	-16.83338950599199	-17.98333694126774	-13.97576543953829	-13.11205409158464	-14.19219164302552	-13.69804624938592	-17.44533594812196	-14.72698083195638	-12.94015284917941	-12.48024956809667	-11.03560537908396	-9.171734377066571	-7.658633469965139	-5.268651340069709	-4.803658598318748	-3.038099280792835	-0.4688972008540873	1.651622142415249	2.831054163081774	4.10174514750571	4.93163276981295	5.105258526909836	5.6698218301363	5.79719833894876	5.326182512395121	5.99181381268744	7.727827529871604	7.537172526449353	4.801629162026813	3.637267980539775	4.521769394331557	4.965079109638452	6.733886002671284	3.880330952433724	3.952457550616714	3.763716887495377	4.349427060185974	3.30013580430051	1.902143604529158	-3.576207098055363	-7.426926035343627	-8.921353371818043	-10.66360016406895	-10.44133635610882	-12.10505191769903	-10.86414196233807	-7.233743575491417	-11.3381104749335	-8.50070549260289	-3.379604095092418	-0.1280770788804375	1.473593901576407
-0.1248687290077442	-0.4034730631790353	-2.410725696430234	-3.319694982282726	-3.422438031334821	-4.391349127946512	-6.322916519788691	-8.385792081582395	-9.606661101516011	-10.12825942785952	-11.38685060017855	-11.71211244954259	-9.632257551905241	-13.13089616616219	-13.01975860021832	-8.621851541909848	-5.875607321008204	-3.05037675134048	-0.6235793780717813	1.810900154423166	5.055349960610783	8.335126435952475	11.74310422481574	14.27277178471701	18.19588204696043	20.67387698922283	24.74553019337327	26.79970473698046	29.97618908801189	32.23716295753849	33.64785944439944	33.94166488110523	35.07244034448502	35.22182598837401	34.93402632004876	36.18085482126304	36.21068449254926	36.32492536415566	37.13507826442833	36.38941478241753	38.39014160496185	37.61192143714106	37.61176570843514	36.85072110731755	35.96327738224483	34.75296449276317	31.83660981674387	28.83622470028752	26.05110235379777	22.41750942629392	17.87189511579857	14.0032043713299	10.48941148295239	5.922023408018276	1.771535092280033	-0.9351335116560904	-5.593531871738946	-9.838518088939395	-13.18556546967642	-16.98013354237833	-19.3196438638015	-20.02054524763076	-21.69714925001796	-20.82913037066862	-19.37783627799632	-15.60564551760126	-13.23413520703917	-12.36625598544907	-12.83266355234821	-15.62229945286396	-14.52314542150856	-15.63897318446567	-12.66049955584094	-8.79067546921118	-6.094448435676384	-5.431586280979502	-4.509932110293221	-4.954984886031752	-2.385486273053061	-3.152312950233238	0.2821173073786554	2.733091558869717	3.956736047281652	4.701987102466092	5.64235042027309	6.194484005642664	5.529362340505202	5.246262789230059	6.027733949124183	6.234968185067203	6.786506994572051	6.662537573448446	7.735152477845133	7.679509341220978	7.49256099904494	6.873592811230139	1.734436646548033	2.002876182319426	0.4625797129925786	-4.440779450095818	-6.074602897221951	-6.632229257334075	-6.5205535231932	-7.126754703198969	-6.870025125664142	-8.581944615885789	-11.51125127240357	-9.667583892713765	-12.25768927259304	-16.23736601421803	-18.51668833572325	-20.40287797307946	-18.03433438623824	-14.57990753617906	-13.75600907388224	-17.60394690458998	-20.35850895169568	-18.95056766202441	-14.11097652691365	-11.17854984421223	-9.289126547737908	-7.073094662047424	-5.421094754146793	-4.539416438682792	-3.689322403165875	-1.334054474088873	0.7798534262806243	3.058131281599344	3.287412978164525	4.443952906983782	5.445290121615187	5.750064456348184	3.782504754682236	4.113107739007376	7.210124066041885	7.724404058186678	4.437339299188579	3.060146806291755	5.345821411032773	1.961159470627138	4.279897342565562	4.700899035519853	1.205851493157752	0.2382481359439907	4.477377198291094	3.761394891313387	3.133570785947938	1.758416972656562	-0.3012850083204626	-5.500197482055569	-7.983333007519605	-9.76280459895446	-10.3804405588134	-12.27436482592782	-12.29923512938655	-8.312344788079997	-10.90542150376518	-4.972300616088091	-2.992817552638201	-0.6180066670195856	0.3207318000747819
-0.6127357861258247	-1.278361126334403	-1.110249117803335	-3.073802966231767	-3.483483761902335	-4.858276858001375	-6.245148483650439	-8.407896986879678	-9.619230364240138	-9.613828908736309	-10.35717710864191	-11.26386678226663	-11.1612718001785	-11.92393924152452	-9.997697571791662	-7.776880616610015	-5.437939824878754	-2.38616472847184	-0.6393525781641074	3.328504880672369	5.942701716411875	8.64583046210015	11.14957952623092	14.50101788655485	17.75176439761094	21.79413895886722	23.98825169087354	27.36680508479816	30.50516049471986	32.10268308092674	33.09122153143801	32.94904741792993	33.79962402049381	35.35179688825662	36.80134067151096	36.32511691168497	36.4280345097215	36.69557996548593	37.52857273443846	37.37694893476544	38.12326100715603	37.99966247729435	37.63134377160151	37.41538179084506	36.64701124374363	35.58884089371554	33.01916008016286	29.45362317630827	26.79790790534059	23.54858039361403	18.94235958085619	15.52561890960254	11.82721571275346	6.946562379920806	3.047031905115318	0.8615498951042468	-4.07291347033447	-6.965489473121124	-13.16648983555945	-15.75228768404293	-17.65069911755938	-19.7066388368728	-21.04406149717761	-19.71801997171229	-15.1635189355091	-13.63390927985887	-13.07948643720903	-12.99144231557426	-12.47177277895378	-12.09206449517382	-11.59332526851858	-11.41138411557137	-12.44243688848121	-8.910034953364914	-7.234418978997951	-5.857000952067438	-4.498767120903096	-6.57076631758008	-5.315747122618802	-3.84908172539366	-0.4190662904620694	3.179578941868613	4.165135350203855	4.472729004912367	5.091817256679064	5.810819037291992	6.1130424336136	6.04137638131931	7.416498887183252	7.91460512457877	7.864178748310906	6.156922585860855	8.004546366723048	8.078569690599522	7.56776280799545	5.125765012956663	-1.18758924447144	-1.14819488731996	1.622993069986308	-2.702731399016159	-6.91485274109732	-6.830905268778167	-8.002966644981029	-8.709169717811676	-6.089775828687152	-5.439806197855262	-7.949067133536175	-8.333514587779916	-11.75938588001787	-14.97761735626273	-18.68134348535159	-20.17900786448052	-20.304671044705	-20.32706499555911	-19.49789369753876	-20.39336727672725	-19.63963715359256	-18.18095358253447	-12.49660124469051	-10.67494932194717	-8.51596657606882	-7.18168733615795	-5.653844732496964	-4.449517532391951	-3.007968771124695	-0.5380179401157079	1.495134432847237	3.417261058991755	3.932634662402506	3.9503699493672	4.866430926963346	3.934359026699099	2.872142483387449	2.550016418311543	5.799948993136127	6.657545665023463	2.216821656991613	1.94816117495094	5.815137674695166	2.249610944910046	1.704708176743225	6.075254425875187	3.34772472179435	-1.76606979452265	1.376363924509121	3.972202265118256	3.30831540527339	2.60716002894867	1.315103355442261	-5.69986201069014	-8.023106055737628	-9.903743066901768	-9.964025273607888	-11.7910601738626	-12.94349856189928	-11.24982423757609	-11.13483071085761	-6.049358531962639	-2.577444796006034	-0.4134658169040222	1.082368500564144
