-13.65177700979649	-11.46694022556906	-9.481903627545393	-9.685877277449293	-8.165116843517779	-8.228303023238936	-7.785382803976034	-6.968768511847543	-6.557224267053272	-8.89885259882297	-8.938865760966195	-8.690372806042774	-5.516540150751439	-7.763263277014715	-11.28098429904918	-11.75226099746828	-12.52003067334462	-11.04989902355848	-9.823025660404483	-3.922400727369535	-2.008212779547137	-3.373785970012932	-1.14690204573543	-2.453551147490685	-5.290337078520764	-5.339756849244083	-5.660808658867779	-2.255135313382539	0.8158294951859943	-2.19806715900657	-1.90471901001672	-1.923647784987025	0.09005935117428976	-1.296140290878895	-1.527201922486483	-0.8342731324524095	0.3875760770907561	5.253839435907196	6.116985132081993	6.334393022300873	7.705084690917715	5.948240113136393	1.571529051435789	-1.251141028801641	1.952578283280275	-0.7887998298849084	-4.690937222880791	-4.458949037848498	-2.313000239331672	-3.905978832768142	-4.123662339051776	-2.437609446610679	-7.474266430311417	-8.648078950889669	-11.75112395774443	-10.97330095095793	-12.55281866786535	-13.05656869560443	-11.94767600529633	-9.813503800270666	-9.405275921628004	-10.8402625415309	-11.37726986545456	-11.58972693567381	-9.590677695661213	-6.973620412460974	-6.600405879482082	-7.596158207623148	-10.64780293043162	-11.6266159636119	-12.69627118775014	-14.30072303916157	-14.36161602664839	-11.44674487391123	-10.85483333649353	-10.688120120756	-10.49708809424044	-10.31132789531532	-10.81265443234795	-11.79087990501191	-11.82421741995159	-11.64164696785843	-12.79040142877869	-12.05555221191969	-11.35639104635132	-10.99302487021038	-9.353930383734138	-8.495160416553261	-6.175716202636153	-0.0641729257826853	-5.027669765190353	-0.5507802846457537	1.606665358690378	0.8785883517393245	1.673110420235389	-0.4420500195703028	0.7608351343188247	1.095139659365572	-0.2393050130710037	0.7269717175922779	0.5154246012272665	-0.1203618534966324	-0.7196873160406199	1.649015760475208	0.8035895093091483	-0.02800004861765615	1.344185549122784	1.654922223270916	2.126735844358109	3.084205952709681	3.037358531774061	4.077079590519133	4.046210999023202	4.587082099317399	4.989821421539887	4.533374297747969	4.702475167924149	4.817608015711926	5.693641868144226	6.470014440343363	6.383240128453536	6.527200228978074	8.505428984336305	7.230801493595294	7.297215450822051	5.752906853596727	4.754006667325456	5.35477550356751
-6.635138862694618	-9.640057785455639	-9.619302451494292	-8.443088951913722	-6.430438577496147	-5.049467343189917	-5.963846787072072	-7.823813072268138	-5.847137223788366	-5.292596228259072	-5.42462912752967	-7.53286690941664	-8.931646397831344	-6.216750219937211	-8.342462066258747	-8.765806224906726	-8.936814390115643	-9.565423248541748	-6.630074731482438	-6.101403443262598	-5.489043828143821	-3.490653552154612	-3.108035685602488	-1.569830702041685	0.08056086547594532	-1.47480394757639	-1.01082670020466	-2.768262072297659	-1.432282206635421	-1.787355682223563	-1.561935593540966	3.781446921916626	3.113716311752512	3.622851280048309	5.353780269511816	5.61336388786907	5.739034069007886	3.467296699345582	4.694711962094402	4.194330148612465	6.270038760400297	6.976656006278461	4.534901722070629	-0.8990995324537323	-1.95677040905457	-3.056842220194312	-4.546131950971215	-5.90649068576738	-5.718240701653883	-7.172473850982357	-6.784896912496919	-4.675462840139716	-10.16559326986308	-10.63886212650277	-11.8569879415526	-14.12691355898755	-12.8584453022363	-13.96501820012429	-12.97946116597004	-11.85781411042339	-12.12858676466925	-11.21348058299591	-12.20722219267424	-12.89334768225652	-12.381711539496	-14.25930268640894	-14.1187656945981	-14.12211438078606	-14.98093956669328	-13.76380413902945	-14.39262972628541	-15.12188140891186	-14.50587478491698	-13.61593355085799	-13.78456577262747	-14.5628931459149	-12.65763651216662	-12.69190179624917	-13.73124942475621	-13.46917925463919	-13.15818575576623	-13.59109171418214	-13.06057925199664	-14.33544665426609	-12.9216831589145	-11.59901679289993	-11.42701147894604	-10.16102816812028	-10.24918230863315	-8.894493066944506	-7.320252610922324	-6.238377846260477	-5.752393023451049	-5.550056433954609	-5.496330775668611	-5.050061908665896	-6.400801441206085	-3.086481023950938	-3.320008719152213	-7.36404072062453	-6.402711537867845	-1.004341070177077	-2.287204079436634	-3.320032951667969	-2.983829031231863	-1.520094555281361	-1.513516351003148	1.955341799316386	2.486720264818643	2.071360219701631	2.839387432508687	2.345298091214602	4.724146755795061	6.262469870827459	3.766682523765212	4.484260404000565	3.985290483189829	3.225167676617644	5.569898244260656	6.568604922698199	8.226091998572826	7.339503399099527	7.753632999907893	7.88647995840887	5.691129207220882	4.240318938422007	5.512138268049995	5.18013764805869
-11.6708514624961	-8.449511465429566	-7.300040495517408	-8.471418488298184	-7.664034088919976	-7.387358409550984	-7.309973039627465	-6.219385119593994	-7.35889847471114	-2.634727964737607	-5.049233386921259	-5.691009611013754	-6.536293003205401	-6.816997211218393	-6.342168942545669	-5.623055990172219	-7.612768194007145	-6.435573243526562	-5.563051531630975	-3.280595721429364	-1.941555329720046	-3.253311968988044	-2.185102870868548	-2.307433412532333	-1.973696623099926	-1.092760925260706	-2.487619760416919	-0.9830210694782409	-0.09661794635891852	0.116631119657626	1.306208567214611	1.250413872694452	3.954572051733976	5.352519712496132	4.543946415969771	6.86304051418378	6.675638632761633	1.273521477868485	0.4882157023357934	0.1859473668828571	2.540227712687511	5.58677431557723	3.662346003965041	-1.191446948131386	-5.756926469145355	-5.651466153447245	-6.849275671468064	-7.151215063936377	-8.490446486382069	-9.608466630630801	-10.35151356351889	-12.07766181663786	-13.41330933247227	-12.37007904562975	-9.351729613928768	-6.637221906681276	-7.34070381616209	-5.968478568251015	-6.419016424966202	-9.077354377464843	-10.40468389297121	-10.07591407220161	-10.65074481679639	-10.2390866996858	-10.24949501591269	-9.272328017923485	-8.775383047692458	-8.721593250665933	-6.755058244054993	-10.21227315973624	-10.80664977951309	-12.08146546879399	-13.50630017916967	-12.94061420575275	-13.24516892504172	-13.5889941727269	-12.0378383763678	-12.65230371385852	-10.72863628276005	-10.6404492312428	-9.430866449506993	-7.448114494734767	-10.51896713327386	-13.25428048821152	-12.47005206921364	-12.33801791884105	-10.75055058050154	-10.9099903214223	-10.33645518560346	-9.587656967811597	-8.974881357664657	-7.234256519029572	-7.448808593338811	-7.960363521863485	-7.673952073389756	-8.087535839612855	-7.107802450364346	-6.623565158618817	-9.078469097754038	-7.109176496099479	-9.616162742001649	-7.830725945084595	-6.93930284471989	-5.983301420485816	-3.877403044575374	-3.344330336631515	-2.625577645970623	-1.483413451929863	1.051621755419291	4.317712390665719	1.599849730858352	3.442688291822549	7.166382531991843	5.397244477946344	5.557148421145854	6.557005017293363	6.192368031553286	8.707507921925583	8.746953428330414	9.878015787201065	8.768429536587831	8.829959411107154	10.04643461008774	9.197750700762583	8.600059911786929	8.274194562448685	7.842982214144513	7.367834854427372
-8.281125874494251	-5.312849595720309	-5.363277555088558	-6.300626884591935	-5.673390862698596	-6.118786962478453	-3.899771310646997	-5.082642656067122	-5.552863049477565	-2.637745974723231	-4.033900363886119	-3.821630375855165	-3.801811827031742	-4.323885196298534	-3.126655262083545	-4.37131369701433	-4.355836564328314	-2.427292584684352	-3.077522579536719	-2.040020128312847	-0.8427198686448776	0.6069801190569137	0.6963411311298557	2.841279544048859	5.026511918033009	2.869222125868191	0.144671082498121	0.958192275940803	1.899943384821768	1.755768521322153	2.320857783110711	2.550346223655794	5.168745477853378	3.373112350578737	1.294471300338529	3.736461679362975	2.425400783794885	0.1279806926636695	-2.258938716335962	-1.349222908881188	1.360380445032774	2.022590338380837	-0.8326924272221277	-4.369245776460986	-5.693204880757378	-8.07912426760393	-10.09576060842227	-8.939675124802875	-8.468887361888221	-10.50894138865263	-10.82643275440324	-12.57372935747398	-11.66012998704443	-11.14226873351612	-10.56046650206605	-9.818163899429692	-10.32461878339225	-7.973986306977764	-8.371478034342175	-8.192246913925942	-7.881591737333935	-9.701472541275024	-8.837068257637924	-8.383929616826038	-8.922711385520245	-6.746722179541621	-6.598445784146321	-7.225445535261258	-5.66720207578615	-7.733878158033548	-7.59428602441875	-8.624912570257266	-10.31380299322225	-10.55901851985402	-11.90747804224321	-8.331867632722862	-7.956772545003247	-6.149443661810153	-5.119883985322417	-5.885032334166624	-5.554732343859882	-7.568030119976498	-7.55457483627805	-10.1646263193997	-11.18849235229982	-10.0694230879329	-9.295477779026811	-9.765623991503048	-9.250176591000212	-9.753105385629425	-9.111120384572757	-8.834326843127712	-9.853325437016196	-9.017414260567278	-9.821620626554733	-9.803450265749859	-8.878097629921996	-10.09075867301272	-9.530435579633291	-9.739317542063077	-8.651893813248648	-7.576514083267881	-6.834372547924744	-5.028670721610041	-4.601774599206578	-4.123530269046682	-2.251073534688516	-2.59191289326219	-1.411301881294349	-1.017728271870169	-1.963210730024031	1.759113277991673	5.139700157268294	3.315990146017754	2.156298626573744	2.977157032341779	4.227883404159172	4.983688772026255	4.89992757366656	6.065822789784932	6.930240390255506	6.87156649696351	6.377148429858039	6.10023762345395	7.694662326437481	6.310258414601634	6.069747062735615	4.261136778314551
-5.68187778291221	-5.296750129941302	-5.307233124682028	-4.404270067714606	-4.024028155612768	-4.227406534771688	-2.194546616531454	-2.621594171356037	-2.22690382753575	-0.4668224561488046	-1.599871867023722	1.136954741445834	2.01919096730478	-1.044044751815477	-0.9321945376922258	-2.730914431179144	-1.354741077406914	-0.9662697922873917	0.6749260610579313	0.1108148788148924	-0.7717080526841187	1.588787133877503	1.840666593904643	3.151760534860472	6.543866426572265	3.141750744619202	0.8093316611334558	0.9556135777209818	3.077715719709317	1.175676675983681	-0.4981195333228072	-0.4476930177519023	2.85489086032868	4.497224475027309	1.090680231826298	0.6065364866348091	0.7938251970404906	-0.4986014463723052	-3.263393214407557	-3.078689870660014	-0.9688412331471454	1.626792843019587	-4.585223862212018	-8.291124798423368	-9.03148877357026	-9.117292174333329	-9.216737385398858	-7.40650405842797	-4.280727567993836	-2.997141375989457	-2.597282413382601	-2.63163354771541	-2.945668030686932	-9.168629815278081	-9.502025560505501	-8.960894858426371	-9.316462116878824	-4.620659224683493	-7.548896401157464	-8.05607829522063	-7.410295083859637	-7.982530015823812	-7.214875169125463	-6.855228089920047	-5.966404170626646	-5.94290004044359	-6.65249605923691	-3.159585208621621	-0.5533393075625384	-0.6200671120583365	1.031358199822193	0.2438995617100375	-4.678960113772604	-8.694447792647907	-8.955218971714572	-7.673900146935864	-8.316188859896045	-6.791640320353395	-6.601867255140604	-7.704246042360552	-4.147763439675714	-7.488453049795169	-7.898435913787722	-7.005847827651024	-6.992767147858586	-5.652577698953394	-5.761748150361399	-5.83311621869953	-6.672986780104566	-8.229278295256705	-7.17164326884847	-7.504637454780038	-7.115204098305128	-5.800564916288522	-8.197823729246522	-8.640220623081262	-7.951571183290611	-6.340084473363476	-7.31075856465435	-8.890680183099931	-8.281909511838819	-7.215919840176241	-6.86028003155954	-4.558724862284492	-4.884321189330024	-4.10213430983822	-2.896727130750833	-3.494528393296719	-2.680160400120286	-2.037155106284501	-1.883383615466386	-2.033261163117487	-2.123736228873895	0.3945379227554895	0.6126057093954671	0.8186917495966668	2.659466748833182	1.701823538024172	4.20256208757695	5.758096203384383	5.314423176665969	6.784518077447842	6.803335111274237	6.246903318751833	6.372255665775924	3.305141036337943	3.687335621807193	1.961615561284447
-1.1289741908667	-4.974626334694079	-4.797858894313123	-3.135494016244166	-2.044930367607265	0.91364718048996	1.52447087370544	1.093527775511205	2.568239042684127	0.06398954083002195	-0.4815013384211397	0.8226157237008067	1.662998749509541	2.295463580381693	2.727742853081878	1.181776253933521	2.182184936896931	0.8415511660269601	4.823826563489263	4.829763203509202	4.238656750171373	5.989362727156561	2.266470917746148	1.288769271108691	3.855402155769298	3.818465344171301	1.573409763816102	-0.5673801087313564	0.1399708206334651	2.226578757425443	-2.047876787044942	-2.018343683046737	-0.9356657066209948	4.937902096059133	2.555651025190542	-2.109168232116986	-3.078641987936663	0.8793424970746173	-3.219743709796234	-5.835980477553278	-5.969810745541508	-3.670507284311583	-5.011523421538669	-5.56166699038431	-5.381393959480192	-7.000558653719253	-6.443554165022476	-6.430168357273914	-5.339800938656737	-2.958558609149065	-2.195578784873817	-1.895631916369439	-0.686329867820632	-5.016512354652804	-4.781521823680805	-4.615005605305072	-5.770099961941014	-5.443112659000064	-6.4835566581053	-6.106273151944833	-6.044779383455932	-5.009322824432104	-4.682231462817413	-4.885593882832893	-4.85662407896524	-5.377341082347129	-3.421212799903117	-1.095353847067685	-2.022989968478953	-0.05500301488021364	-0.3169883850426913	-2.957723373939757	-1.422728916427673	-3.787003269291688	-2.75501041208932	-2.057791308598297	-4.03712097676825	-3.095968113571132	-3.756783932345485	-3.469516170458263	-1.824527765373972	-3.893416092101575	-2.583421931134097	-4.112492347471772	-4.619477389829427	-3.092612599355249	-3.651487262495635	-2.671209641949247	-4.778976534246596	-6.149615425745679	-4.355328864166296	-5.337990847396952	-6.168713645937743	-6.695401319288067	-7.16632975804427	-6.106094970457235	-7.673268099769615	-7.488547314678726	-5.294581214733853	-2.14013441434625	-1.774458184997115	-2.593890815077572	-1.096751396560734	-1.606043362776063	-3.949410583088081	-2.659293396028517	-2.682926678026547	-1.402647619005535	-3.399701854872205	-3.892177601410793	-2.62662609045006	-3.602741460289536	-3.507565384592823	-1.303961106993142	-0.002934676841960027	1.011631786827337	1.455040295811727	1.884867764688607	3.521023981204252	3.601734805524956	4.594164918695753	4.228557912648455	4.192229377917016	4.924214329420977	3.41529721526183	4.198217198132795	3.923524190696327	1.926527139777676
3.938736405488925	-0.6155039451954849	-0.9139390010514603	-0.3808566034662419	3.305837615527167	6.941633448080012	6.947141210951401	7.373185009438998	8.929892733983593	4.258075290373455	1.854772528710157	3.974783978090954	6.938071172546671	8.72526128283215	8.530562273968513	8.248216697084217	2.256778452757658	2.395640705410841	5.299759142787906	5.873634434644003	6.01189450407611	8.026090831317504	5.756111790614966	2.890623733428669	0.8828539769303347	5.242220989348169	0.8128560196128092	-1.71213520545021	-2.019098440817373	-0.04067955962403857	-4.815005852904079	-3.992454634567025	-5.696148227043125	-4.604934226232217	-3.542061011915735	-6.177150149319033	-4.651912861447357	-5.539996022269207	-8.219529333090691	-7.696561941721654	-7.343486907414189	-5.906336453621094	-5.684266422994597	-4.966698097912342	-4.984339092233114	-4.916757682781082	-5.098441916067657	-5.762457347539055	-4.85051154354872	-3.973234037332844	-4.913287373189661	-5.042529587903744	-2.440068176536442	-1.934719138449168	-4.038501010563351	-2.153541844101341	-0.8109844724876325	-1.078768729957318	-0.1272520264543573	0.7341902656274613	-2.08488430144422	-3.87184196576024	-2.871623191353876	-3.102780145574911	-1.025674263715729	-2.310643490380016	-1.417845722639811	-2.412612838200374	-2.402037509605009	-1.566464924832644	0.733872778339844	-1.921491845444706	-1.110614602913358	-3.226416254687052	-3.069169175086586	-3.251550053798553	-2.644272285829345	-1.67652907890718	-1.519468809185554	-0.4969561198115287	-1.140317160157224	-1.619343378231719	2.449102990552603	-0.7888152560394133	-1.101839944426729	0.01832962818050987	-0.1125601422221223	4.153459328407649	-0.530298646480901	-2.077186247585331	-2.908995053279511	-3.948464151131446	-4.563180354713666	-5.08021330014725	-2.260351516035001	-4.894338687141328	-5.924567446270373	-4.590297223740777	1.552950110156843	1.754740301708154	1.593706106853318	1.902095346197086	1.843249172297305	-1.373808856679773	-0.1530578211858256	-0.09019059775886262	-1.731860287874213	-1.66061940258254	-1.479489343145218	-2.11862760752058	-0.8857900521611555	-3.050111276441982	-2.498831494118207	-3.036735559507349	-1.388120240211322	2.086202547422062	1.764272380613221	3.080868588324506	3.55955829367258	1.388027543795886	1.043671640135983	-1.621724430001279	0.2593931033990771	1.137792401180747	-3.291635370856483	1.507029170705266	2.724613196341579	2.68986022267319
1.750257908785954	2.476272781073021	5.776593509976493	3.092065695099677	1.205375305831893	5.386039349116857	7.058225711528536	7.269805240951399	7.906201399238626	6.108317320354985	4.67460269791971	3.408674941272039	6.682871024487042	7.619601202174778	7.996418875653291	9.400562981881137	4.950674541178159	4.476617178112122	2.905259440800307	5.103572117868197	4.053819018843029	6.337831725420813	7.954505045017982	4.88503187190571	0.4996990593090516	1.36844946370087	1.642331161956378	-1.62722718980686	-2.993112877440097	-4.409707229929523	-3.385626420220632	-4.363054609448454	-4.270211106656205	-5.346947455169868	-7.402883973835031	-9.905045301652251	-7.590241942958016	-9.482160115373034	-7.391793711881263	-8.855921605099809	-6.358340821120578	-5.859266099124909	-3.999659000763188	-3.542440888574788	-3.991378654340735	-1.651863807289175	-2.968390252802521	-2.662688593656412	-0.4119030879836032	-2.055019346927992	-1.334401439350898	-1.718179196836559	-3.03968220748223	-1.879865170869749	-3.671971856887609	-4.091275033747934	-2.04267800104725	-2.230638706166729	-1.354014920198694	0.06424507803328083	-0.5370882433852557	-1.656922886616115	-3.153963701671216	-2.369391634456008	-0.2484426022897424	2.523232553175518	3.824779223634408	3.13619129702181	2.605484694410762	0.5292382413907717	-1.047353828715046	1.237363005227849	0.9800525640545743	-0.9982190475112986	-0.9960029862599242	-1.657612016077991	-0.3259538457291171	-0.03963901509607126	-0.4177243690851071	0.1426855065753614	-0.6358969507474228	0.450848745211033	0.3636687798207277	1.896674447657773	3.131845747147764	-1.411669351685248	-0.7805382538014669	-0.02948348859678163	0.5481616592354897	0.913224129114468	-0.1157294400678381	0.3775944288233859	-0.5871302582844464	-2.075662542768555	-1.247624260855275	-3.712959640911436	-1.326885491486706	-1.554222845511845	-1.059835219872781	1.869414380042343	0.9416363839098381	2.326083144131985	1.564209977318086	0.05166221757224321	-0.03734040238617808	-1.054484371092201	-0.6393293275299925	-0.8404518851448586	0.2178585621147988	3.464223953133484	3.44015717189734	2.925325475169416	-1.06296865092807	-4.445591083424063	-2.762397845259358	-1.630106818244371	-3.639092030498347	-1.625531671554398	-1.201668861790324	0.1178091351472688	1.58826733345353	1.009286635362059	-1.033114111087144	-2.770202076050793	-4.340780831521982	-3.077978531467977	-0.8741256891742921	0.05764428703730573
0.4894205840657833	5.288502613132664	8.577899206844194	7.155330868167994	6.094441890144935	2.298592125461255	1.569890052291498	1.275655211393115	3.469259132817115	5.905804864852257	3.0249381404563	3.606096423722676	3.980422964563303	0.6061729922435859	0.6846813139478343	6.008517497960241	4.903612954271892	3.114815815363357	4.53804399506248	0.2999182009960748	-0.4663422604166101	1.590039795578406	5.029067167922221	0.6328409889545412	-2.939407687352286	-2.936646223681976	-3.339080794335644	-2.096024133241627	-5.140402197623786	-3.724604801372891	-5.903882852297187	-8.064849448549978	-7.153492511314113	-6.522010126501328	-6.724982200535436	-7.850408422384476	-9.248104029081617	-7.519922738491232	-9.048752300258684	-11.87017985662214	-10.19602664386224	-9.71905925513957	-8.021769669728144	-6.748400749701915	-5.91678187739555	-2.428101482673725	-0.2529166186306213	-0.4125756485302929	1.053254265961527	0.5082432510835986	0.3143672269253273	2.840436537214487	0.1913490065818735	-1.382418459245599	-2.036797734053209	-1.846814811275323	-1.479714574476674	-1.113028996267445	-1.30740610937292	-1.437651040772323	-0.3167721798144498	-0.671135393442654	0.901244498163237	-0.2394813596876872	3.708615159631336	4.24312864245988	4.261954018844847	3.897502132704545	5.445158110200964	3.650358858961511	1.099200778257114	0.4586150021156641	0.2676445410007204	5.051292956441074	3.994075206468381	3.781476074660333	2.457580155156563	0.919503746230987	2.418987354850884	2.163383623082723	5.401246804993093	5.950417551640356	2.044782080366417	2.069349645679239	3.666042513169089	3.993910389909303	2.762308701785201	0.9660010750459662	1.752495274624977	1.290231987604955	1.971157215612664	1.300498822671841	-0.4782607350272201	-1.086160588172731	0.5740688686601914	-0.9375897878601904	2.008817845825661	2.513913686118485	3.164238792252576	2.169458753360203	4.268667563575946	5.60269549065174	2.645967082324461	0.8624610051565185	-0.9685566317304506	-2.162653354983945	-1.400929175793095	-1.37377400565785	0.4155630282352263	1.664734906896285	2.32932602877554	3.37528012569021	1.593735250949265	-1.176021569202589	-6.191728827802677	-5.524734755238654	-3.383071504688587	-2.210959303082944	-2.48341504958421	-2.156332445580006	-4.207741557531421	-2.967756511797859	-3.228830498128673	-4.600944851576202	-4.670426002499454	-7.412559221603971	-3.667922873023883	-2.13575110324382
4.727755729233508	2.985401729995033	4.235874955978346	7.830204565916631	6.826580058097733	4.613626062639753	2.248738043844298	2.206106310179024	1.151362158067087	1.691750014641343	0.1483801188382756	4.505569738895332	3.411209295744953	1.336495530937782	-0.8581367398378177	-0.7152371735385543	0.4378605237175179	4.470094786738656	5.727489675376489	2.50585920008325	-3.12615103934499	2.70971291475712	-1.034633544049086	-5.261695090808729	-6.898285909080357	-6.877434517986472	-7.395534360424421	-5.188959168603418	-9.127510204390973	-12.83909606205435	-15.10687955419493	-13.37352488797822	-9.486177713403151	-11.9748494168615	-12.77885534579156	-14.43099199184456	-9.405469512300556	-12.65660118999298	-14.25093096866729	-13.837229354188	-13.40400236333679	-12.86210308444004	-12.89225849115454	-11.3895253908675	-8.519741199150218	-4.605887644859536	-2.753232760800159	-1.824500884635086	1.938442078986981	3.260710595163602	3.853141284295788	4.88841067061125	2.189417147990184	1.696307951462927	2.321462596811671	1.41737566161197	1.032047183556529	0.9721004733371785	0.6361744319746663	0.3149818147778376	1.400397239360416	0.07306730880219447	-0.1101180878068249	-0.2757583270814052	1.682749847455	5.243099949526339	6.04950969549671	5.73356692488008	6.677184628327467	6.305262847464178	4.282421251452234	4.048922831965996	5.96507111079535	6.080695211970692	6.975624793678037	6.464587358706325	5.891146701839318	5.627428371095391	3.72870312309513	4.309381437910389	4.054006000210251	3.137747638198761	3.955999950419312	3.267442295048028	3.782589893530997	4.331323016430389	5.308387064105318	4.105133966138311	2.59778272313892	2.940550780470573	2.934680586430346	1.963538454493914	1.281542749971493	-0.839972529872739	-0.8262821848146586	-1.717471543615886	0.1231716750534986	2.621826029423175	1.33649856214214	2.142152321997742	3.951614449135576	3.400543194041688	4.834750081771404	1.961072332305548	-0.335242259032384	-1.671334052706271	-3.111813862025002	-2.536723809609612	-2.992407072107369	-4.523406720257697	-2.786528793990243	-0.8916405923318962	1.072617885402025	-4.542623599193689	-7.624269329027442	-5.691543581572773	-4.924754438123358	-7.784481165665284	-8.762968324233725	-8.645940444656617	-4.165876037863484	-3.57568477641874	-3.753932273446082	-4.576064826581671	-4.691619000608341	-4.312632381300574	-4.258128601950034	-1.888331912496938
-0.02643015916316926	1.165729679746221	1.602424455717141	5.222960519612059	5.071720677853307	1.251019705832306	1.527635360064721	1.842435804935377	0.07891075998225006	-1.165661659642694	-1.725190582188986	1.192324634292817	1.498854708525471	-1.666988229700877	-2.937532933109111	-3.671869240207229	-3.975254093145026	-2.026486268591441	-2.955255001381431	-3.826856409693022	-6.926389152533687	-5.319385546387622	-9.007875624874004	-11.64258052058543	-11.66022995079373	-10.80910535142263	-10.39666264602357	-12.89179179629977	-13.66550995486745	-15.07998276340055	-16.78033896266285	-16.25467959708578	-14.34247821168026	-13.95402389187464	-13.71392556490039	-14.53700292437648	-16.08403970618002	-15.04028560432198	-14.94173445400941	-14.31100352665558	-12.6600399751695	-12.99045566607438	-11.7412031396222	-14.67515556101193	-12.89317893278684	-10.90296323969869	-10.47924718549692	-9.495678682528137	-7.937241563826376	-4.796515698382933	-3.546743025161845	2.582175583860732	3.766958953775656	0.9560401070394562	0.02150366027601081	-0.3363084565070267	-0.2507067825539195	0.2460367441873643	0.5345434030183469	0.939840358627805	1.745733314892107	1.924740565451344	1.807576475926709	1.270901265654572	3.11438151435442	6.860191554094513	7.393533812216305	5.288796314315505	7.94267670472135	6.786885785187764	9.383125619283504	5.901215391666568	6.2894346395735	7.343397659945055	7.111408869974412	9.160075461152786	9.527146628503488	9.790403391562279	7.725717383311064	5.121377578785882	5.211548558798398	4.380224374317237	6.691459246752601	5.367230207531946	4.70376030258555	5.241056449135073	5.480776130116311	5.700271551135955	5.196061006007341	4.592061711455955	3.67540456757564	2.553512010538384	1.180630012304192	-0.2389349959170772	-3.280149336092421	-3.657080876045853	-3.774776782127162	-3.016603367812138	-2.491462543169746	-1.990318177178835	0.5236510163717867	4.503022674270085	4.550724632454887	0.7392913063653737	0.289742599767834	-1.668919413032171	-4.110486235369933	-5.644870782684677	-5.443785672446296	-6.091533842073204	-6.730109801477454	-4.399569287111348	-4.362461484291288	-5.312096766802824	-7.945052753800212	-6.305716936724167	-9.163748707071619	-9.624751655033862	-9.434325916954919	-9.503836178537597	-8.605837147855141	-8.11028763512229	-8.039934961869733	-7.639730205948467	-4.076263025212086	-2.520310717318779	-2.354030120643898	-2.361734234894271
-1.582386953377096	-1.553890703326005	-0.3715978337191075	0.02589575516020659	-1.047889328072358	-2.022778713655754	-1.821441348926726	-2.25421096770944	-2.178766499281437	-2.373291041490518	-3.153291589207896	-2.862128160578663	-4.795377323967529	-5.532779857256287	-6.384926536738817	-3.221874909819434	-5.628663271786422	-4.078091730998295	-8.749523678900658	-8.870223682412188	-7.846650200585231	-8.062887646892449	-11.64892987408788	-14.24663048973017	-14.26376443647058	-14.16142382245312	-13.20430411010616	-11.92225173648617	-14.23604258957826	-15.08046757584842	-15.10085280706289	-11.5133779023999	-12.62054990674778	-12.70595521008946	-11.72268811507968	-11.94625596531404	-11.23209488323582	-12.60245785087199	-9.568433879090406	-9.330785645922305	-10.31844205068043	-12.41860916483449	-12.39667181880961	-9.849000306176606	-11.58454517816642	-12.41271657134899	-9.500233094967371	-8.675722747416756	-9.745743622594432	-8.548785374899182	-5.784495259432987	-4.935503469188461	0.5763738836301115	0.9384666930415904	-1.182483628510454	-1.307930110279358	-1.030540987377464	-0.3607361249483461	0.4247103293536725	0.7098672517466582	6.379220825235251	7.476244552460741	5.108244014223317	1.936590612807606	2.977669777760099	4.921456456303304	5.011549483162071	6.234540111294251	8.427150684318121	11.01230594825853	11.40717182577654	9.364944250754661	6.057982556646948	6.60031653657515	6.616800447694942	6.663288888325354	8.585906272749327	12.68392357837232	12.96773107802892	9.282038690481016	7.740815677074067	7.554501573695205	5.984779535783332	6.708237467991097	10.78808254034271	9.619791696370015	8.772533845790747	7.695631714460461	7.690213714650611	6.687699463359905	3.507998472570051	3.100966148094727	1.585896393455954	0.06626033836894862	-2.97386490698571	-3.721065120599576	-4.870649635368636	-4.752620884135411	-3.20919424326695	-3.389731709744183	-1.596813059626385	2.495484120501715	2.434614615519365	3.266610816936463	1.764083279584469	0.4718402429274704	-2.534461359289367	-4.693013937198884	-7.345848690911197	-7.342451954139818	-7.037192997199497	-5.019405872420663	-5.507474416930563	-7.032581535238819	-3.723405943658719	-4.361171157137022	-3.908536404249531	-3.937337600820371	-4.382263091417201	-4.88428701054508	-6.177628925464859	-6.433930069633675	-6.987874378365291	-5.177893316791142	-6.031619247133392	-3.770586261474335	-3.006970542779101	-4.358232845103657
-5.288745561050405	-5.737497243068248	-5.867194668529834	-4.235667731354937	-3.871941584813925	-6.222664060819227	-5.842959084838412	-5.659670432739432	-6.748655850506736	-4.592386510597152	-8.344405644159565	-10.33104580882699	-9.917079120603091	-10.44307728955516	-10.56566476028362	-9.235248368645472	-13.0855470674725	-13.14304265842091	-11.63058437001385	-11.46843204626035	-9.55585466818269	-6.100483241317704	-10.15559462165413	-9.784462543169013	-8.806827256950726	-8.169523973986969	-9.114505758612466	-12.80876341632205	-11.50456249463556	-14.49897949650614	-14.76309799778002	-14.27762764387973	-14.73084300866043	-14.85286341768276	-11.78746302607541	-14.13245793585759	-13.79968499092615	-13.39268311871842	-11.99433521580451	-9.121956963051929	-9.082890869877332	-11.99958295041802	-13.76465131642416	-8.638039787621864	-10.53206920367703	-12.89583852995173	-12.29324086323024	-11.87670338984159	-9.289623164254721	-8.844709741645119	-7.752584491647809	-4.630956701061507	-3.796113955567478	-3.316110985735747	-4.821512913164213	-4.116812173645542	1.579124385262816	1.749507605445359	-0.95591896885756	-0.8346136362888217	-0.1328147394493726	0.827966335082948	1.370322741378573	1.123213901729912	1.173175330044074	4.754562810917236	6.675381355434638	6.291072631367172	7.175780816586524	10.42403196454305	10.80612095702128	7.321150824676238	5.435276103491844	6.060629258707678	6.088619165392089	7.11658447047364	7.726443780292101	12.02704784317652	13.23315537714743	8.906295608601738	9.496413445548484	12.09085421155356	8.553080193089158	6.946586293685868	6.02788240773549	9.244648455102919	7.688356255503322	5.828094862260855	4.657031572355578	2.934683663732073	3.10935927058506	3.034324574735962	1.580481210575783	0.4041519691855626	-0.006162677980398712	-4.168123474254259	-6.051474325211103	-5.310675902047763	-3.4972416780586	-2.704484023412419	-2.779539218071676	-1.125132111284103	0.8042975402781849	1.342714089732368	1.57665008658563	-4.159179594380959	-6.818274715021488	-7.759410887469784	-7.375417027642641	-7.204262266347683	-7.063301041394823	-6.534140935568331	-6.233924029950458	-6.043911292299413	-4.640350011403001	-5.970792016045891	-1.445920138310299	-0.748231762074937	-2.134618328990825	-1.799786590182492	-1.427216202899046	-0.9202825570813218	-0.4985024190890783	-1.84650711547701	-5.946280745144293	-6.761816278138269	-3.878683217517761	-3.313649638816003
-7.114301756673058	-9.063502483871559	-10.04992213641637	-9.149542488244492	-8.160873764751869	-10.45822995623271	-10.41971733890196	-9.761727818304337	-5.082789055777482	-6.106809617596923	-8.602300055312469	-13.37460774393955	-14.79263746284946	-14.61221059874626	-14.28336181026413	-14.14229849577308	-15.68711268055773	-17.56471743561684	-13.9010434786895	-12.7654670824231	-8.041714164661613	-6.364338156768099	-6.790274564244982	-9.277728314927089	-10.55457272472222	-7.611272086558358	-10.65684712924389	-10.05276844608656	-6.990502409170062	-11.43859022806572	-8.797145219212666	-10.06314928186347	-12.16954994267289	-12.38186480816444	-12.63568535946862	-13.27891651639396	-9.801441932988212	-12.43509487638502	-12.25626430033915	-11.39942030123697	-6.590774648922832	-5.582085968546522	-9.781275173603063	-7.936051435821412	-7.721554022048025	-11.61555423565602	-9.577745713371854	-9.61941286801715	-8.007153591407871	-8.235295597975465	-5.291994918600096	-2.427265297391216	-2.788295826308456	-1.960895171116135	-0.8072174993612293	-0.9849299574144084	-0.9614971592214374	-4.735848427944859	-4.822586831944989	-3.252266916348105	0.6939278649725793	1.118347911894091	0.04713970710491822	-0.8381320943883566	-0.3233130869666354	-0.4369775967187195	2.826515100566127	5.003122842149139	3.240968557601605	7.813487900238158	9.337075020416734	8.414045553838065	4.535450599528474	5.895473588678357	7.229903789907894	6.892515157706327	7.987235816188502	11.28259974199511	13.50053811172262	14.95719526618967	11.40600333758525	9.653292347755638	11.67088911825326	6.175130578185474	5.21655519342201	5.801922562351649	9.441976768419323	9.795814855729304	4.254336682901084	3.928471229222936	5.146548529237919	1.313576548531643	0.5949143772634216	-0.1258225164577595	1.352933670040073	-1.897527882431888	-5.139521269623344	-6.076511178266713	-4.999720240428957	-0.526470888740505	-1.302701808665915	-3.141084214925769	-1.23810770667933	-0.001704288076410876	-0.08512094703249318	-1.737786725648959	-5.859244283400187	-6.762286758868868	-6.145990998622381	-6.822803109730046	-4.657991651789814	-6.119953967619864	-6.602647217351119	-7.941138604175165	-8.150310420231875	-7.92060545937963	-6.177247981545065	-4.617204180668978	-6.851176694618886	-7.080311956152684	-6.319187639490906	-5.783108337358186	-0.4265500528027246	0.7801646387692074	1.157218305900244	1.361053559443064	1.205451253301504	-1.636031754934265
-11.54559156833514	-9.449268859090296	-12.25490390921917	-12.55608325419124	-12.22730654275753	-12.07289694981762	-13.132925987497	-11.31088073925287	-10.80194713191892	-10.23693413481715	-14.39238500420456	-14.8344030869907	-12.99455334912739	-15.86647585766764	-15.58024804877263	-15.17339400981436	-11.5559879589274	-12.51953667539459	-12.31785063584596	-11.66271779458586	-7.99756717391665	-6.426909879342702	-4.356664900849012	-2.629243503605124	-1.004804996521614	-2.463233678107201	-3.475882977951159	-5.252051614871533	-6.194976035492658	-6.686051465870889	-4.634136958659127	-7.65825865771518	-8.690903654057081	-11.18268514110866	-11.0121003123808	-11.18587314177665	-11.69249879384176	-10.11293813537608	-9.265325956581421	-8.902088929603622	-8.582914383228285	-9.37183951941131	-9.200541857930318	-10.27608371640585	-10.2234561912195	-9.399767181223609	-9.809819490860605	-7.857160351892105	-7.823571736835277	-6.29454387689924	-5.376362837786502	-7.272643340200943	-5.771826600617061	-4.527687985362661	-2.730599526173904	-0.5749635946746992	-3.612568824811177	-5.113900203424294	-7.377919404982237	-7.083419660826337	-2.390540333358985	-2.859780416685055	-5.63517196871183	-3.847496708961387	-0.5469381939653601	-1.993938159231845	-2.988576293097566	-1.017549996709391	1.460348995999794	4.093064123362382	6.827230260964143	6.624683011085494	7.523913093837763	10.19561595410215	9.504733829084955	7.833244926231913	6.168817580974917	8.282879739372873	8.747683628685593	10.3570159417159	12.20500798990918	13.57450477320236	11.88669638692562	6.518114720916486	7.561021690778659	8.166970565127173	7.194342835981701	3.708762664530667	3.213069033743096	2.692548912372104	-2.411546505737618	-2.884262001884338	-2.729130612051819	-1.935859940286008	-5.590687049792905	-8.20450998607447	-8.306722638387271	-7.398353269974592	-4.780522405271427	-3.968968135949552	-2.951091286207003	-2.948140070280033	-3.464967832460303	-0.5545370673211778	-0.3772765913897729	-2.87247697985535	-5.990795321935764	-2.772138180421251	-4.975252224361441	-8.123824158226256	-8.165882654012108	-7.291237222757616	-6.942123187337643	-7.390076601037151	-5.500180986887955	-5.315590065817929	-6.440722476736568	-5.9711067687374	-6.192028358012408	-3.212427981934354	-3.89353486363774	-3.745362413716038	-0.2009242359277721	2.495959800490169	2.721175107809728	2.348646241229289	3.607930865920423	3.43166079996405
-10.40485582169657	-13.28535450273927	-12.24926118867651	-14.17429457628779	-11.73826869132051	-11.50748758954677	-14.1718782592672	-13.42735114296082	-14.76888215324286	-15.31008119552078	-14.13683558551779	-13.02075362084045	-13.01877721262795	-10.71173507347251	-10.17978404426111	-8.739817743695284	-7.7716397535807	-7.715049903974176	-6.776968749833287	-3.511004879824583	-1.718368082159458	5.097268078285111	6.489345520221775	7.516870330694275	6.302534092182668	4.267931012058	7.47367263825106	5.350498454758281	4.711323897484846	2.097480016668925	2.233106891874115	1.671295347172247	-0.6326313245837127	-0.8110667094391033	-5.090907395258796	-6.506820368263647	-7.870681088569626	-8.632766818753964	-8.908941123294767	-8.262212940904448	-8.763909170958556	-7.265115440839253	-8.39718018893592	-8.616120522697969	-7.646306552776991	-7.737622833474433	-5.27668246294337	-6.080869471303203	-4.102547488357004	-2.668991409064745	-3.342902351401477	-1.003024797839004	-1.514164281399559	-4.304357655487792	-4.480113129057742	-3.753352292821347	-6.254142104163805	-6.3311271523215	-6.753620045708374	-4.946710547534224	-6.180170603121837	-3.913837715950763	-5.417874126749098	-4.796100577672973	-7.085860804546513	-7.867273307801696	-5.786805016273746	-2.904472162067719	-2.36088138748417	-2.246642058639452	-1.679851176809535	2.081070424498648	4.014242800790328	4.006425881371626	4.783921798591308	2.96168098843745	5.081528975693715	7.124660136831068	4.189273468286501	4.900344902647333	5.595920294658072	4.001897426207734	3.090042587072276	1.04995682663295	1.169998399847714	3.589163564693706	3.360279697136662	-1.438184535909528	-1.232184315653114	-3.719606230471015	-5.856404513527195	-7.046207150632341	-5.864544466651466	-8.538120363465111	-8.854353339632098	-9.110352319772716	-9.953490333684954	-9.520769603672647	-10.0245616873199	-10.77908975598484	-9.614543621585568	-7.685837125009556	-3.321567573615141	-3.429358528924041	-2.493720432006938	-5.099282781092597	-6.664802904673877	-4.832841896488475	-9.707295458983992	-10.0270551568143	-9.321087715563806	-9.321121362916699	-7.65726078483425	-7.669434416636534	-4.393855655854424	-2.610134430292959	-4.112245433720659	-2.385846091495523	-0.800390260510909	-0.14090139105258	-1.78424089816815	-2.924540677847745	-2.357360662474036	0.2979888468674972	-0.005167816080302146	-1.792320426094818	-0.940306112823265	3.21761161274091
-14.5836312344754	-10.90683647489547	-9.084947806500224	-9.340618330591781	-9.504294279667192	-9.395633430147143	-11.17242681130139	-12.40445060964902	-12.3263649892869	-10.26318946548579	-9.525332980791546	-9.198934824906729	-8.942416107102645	-7.179340163133077	-6.3437015229689	-5.000870031310143	-6.084394936273583	-3.887390208658985	-2.449111383714836	4.090452154975026	5.477609138673387	9.85254349260839	11.84080586945998	12.05998449247383	12.54076582256519	13.85127410864493	14.79186271750166	12.40789217895176	12.1834086637086	10.6357819787797	9.119947356414571	5.535823219600758	1.428276857379075	0.1803094335295157	-1.679205891685598	-0.8450404642947262	-4.54530799668143	-5.032465240149463	-5.408584604566414	-7.472881842469974	-6.697919620131415	-6.300673446375242	-6.941996958891394	-7.305744096242762	-5.797196740885482	-3.915213215441156	-3.640116311164235	-2.022509098840231	-0.3132274666737089	0.5203159934386576	2.502991590090204	-2.382556180241579	1.203464651997763	-0.8245151678200671	-4.402761573458349	-6.067494989975273	-9.535373113530852	-8.061157754658097	-6.825791137779987	-7.044705324810565	-3.976569681998996	-4.877041642065365	-2.615782289790673	-3.178251192681643	-7.800265107577047	-8.735432455086169	-10.39002221109575	-9.525458767956337	-7.50473607865527	-8.453701277524686	-6.965441875512141	-5.511594350695134	-5.143225173895473	-1.015347545081141	-0.7617503188965316	-0.973613891883133	1.526864184202594	3.034464349660908	3.727868764207415	5.496145619195801	6.978730287239358	5.944529544092177	2.56449439490558	-2.362614681563969	-2.430006498235429	2.822636867861718	-2.710587132667115	-5.105470417132636	-6.666151984177617	-8.584485060053822	-9.551859087504624	-7.389392815193787	-6.538889478887455	-12.6089474694632	-10.89142467085688	-7.450317975520591	-10.46031840404683	-11.48670075361312	-11.16961381181108	-9.545802795821089	-11.53387389142503	-11.2673644661372	-10.75503924467432	-10.30754508850706	-8.156212902387182	-8.906701636415079	-6.794925685891542	-12.20174610470266	-11.72213237249281	-11.07671347573256	-11.82505419745465	-11.9760946904874	-11.89486669423172	-10.34414536196468	-8.528372243503469	-8.779741416785185	-8.149297648159063	-5.653525726251729	-4.829316217196578	1.261757518396706	0.3881729985318429	-1.302036597845188	-0.7297388683817587	-0.5903735795628791	0.1147225627398427	2.020713707927939	0.4883913116577503	0.1174069679237562
-9.177390135546773	-11.74505931887779	-10.26129485538479	-7.434699928671023	-7.241902682531617	-10.10142448557193	-11.35047795778632	-11.17515477608154	-11.01059941911535	-11.11211488710663	-10.20515750479913	-10.23746093472548	-10.50049658011341	-9.490486696945624	-7.851925882856506	-3.906956464734805	-5.265211885810288	-3.610894214886713	2.587061591810766	9.386215812877339	11.72417405234776	12.18741363486163	14.20098573474343	16.64627855052234	18.46557942712255	17.25039063687785	18.76498898827185	16.60935991206674	17.69853648697546	14.89343037189821	15.16045806872518	12.10599180749358	8.765132278774701	5.082597873711563	1.608496701695572	-0.8518283088574776	-2.171201443999138	-4.597460339998889	-4.057224773812948	-4.036895654923768	-2.791323435750314	-2.135891705101955	-3.547729735385957	-0.8872380649632134	-3.316203920705391	-3.818300684223772	-0.5368610535021219	3.068488520576693	4.12951044532835	4.517249361587801	4.698092800826714	4.116057213336489	1.603256544895743	-1.268855696239825	-4.972034087300699	-5.551827159069433	-10.3899786413038	-10.01858997728894	-8.923493150173016	-9.566675516826393	-5.898393018825544	-6.276234212932167	-6.158130970419649	-8.842536809616632	-10.50773422479716	-11.35349115114388	-12.65441944510761	-12.42111932337991	-6.382351701177157	-5.451063673458151	-7.702592018794348	-4.102514945847304	-4.211392218916643	-4.780552966982839	-6.674393926008491	-7.272821478116555	-6.691697705585312	-4.629962615756341	-3.480519711377468	1.055219644487238	-3.200457245780655	-5.882858646766124	-3.507242230650036	-4.825689980574168	-5.997312135388171	-4.784624224971594	-6.833484180740101	-7.827347996433161	-10.04063656313576	-10.69202404242108	-11.35302767713961	-12.08812909079234	-9.539376297540258	-12.18955334905647	-10.83367133861972	-12.96109356474363	-14.6336608992718	-13.27806239908236	-12.10079293766117	-12.51558661642551	-13.65159171894317	-13.74058825652915	-13.17809237347905	-11.87808459986235	-12.02257955755798	-12.71810419559267	-12.66736307058017	-10.79730720530492	-9.541101097806262	-13.88215123034072	-13.39594724480929	-13.12175232587819	-13.10123111212337	-13.52635813176806	-13.18304419598783	-11.07499011946001	-9.149292218769489	-6.144694740567928	-5.672540633070128	-2.500187057902082	2.663644702179965	1.552494703325237	3.640139906965516	2.973970741494554	2.313204551956034	8.102206292343112	9.936979250870564	10.25765574720512
-13.15829096575197	-9.646109968823339	-8.416815831307417	-6.284748963406116	-5.1228097202019	-8.905453340468597	-8.476579798267068	-8.514827119100516	-9.886381054184483	-9.510130464329052	-9.821285283405189	-9.206789616976096	-8.525222566482654	-8.472651874320832	-6.89965501173333	-7.102961698590349	-5.466949875628529	0.8578296841800466	5.207877668051481	15.23449067559127	18.00624996012147	19.93275251309259	22.29046590520258	24.77864288796752	26.35114234076042	26.52035904085346	25.98516949941225	25.38342361201711	24.28739554881921	24.29979100250594	24.14427431816841	21.61850843139774	20.43391294398432	13.41669380468056	8.479526150611576	4.792271331599522	1.165440230198271	-2.152818732185438	-3.115012430217462	-2.456959724827072	-1.017811041451807	-2.281543892773556	-1.290439802624462	-1.565795112219519	-3.090484484166097	-2.692905512310915	-2.751519143788613	-0.1564580795727011	0.120758441103419	1.078545179625763	4.045320812423057	3.739300164159829	2.385122960811998	-0.8067075271384851	-5.513913615776801	-7.788814524928824	-11.22709524329625	-13.44594901370149	-12.69082914133548	-12.94673671710547	-10.31149301489779	-7.823263914631838	-13.19061080820714	-12.54786361492395	-12.06497576772685	-13.68968241134829	-15.38005163439689	-14.85980683154045	-13.1040294968453	-13.30758516355309	-10.73655419730375	-7.270610606623165	-5.480127614474384	-9.985716603329081	-10.91750789170709	-10.52806881568918	-9.30851889391451	-8.686969566618814	-4.554123943309918	-4.734211329981747	-9.18141248179964	-5.878928248721166	-7.186733000786148	-6.132339145403392	-9.306139450765414	-10.73948397818404	-10.46873701947078	-10.87274044712919	-12.19587493047558	-14.03572320258129	-14.30976923719041	-11.92164312420402	-13.12213599572351	-13.19413932840732	-13.24655503232447	-16.24865633705585	-16.26579348691928	-16.23010912234724	-16.77146704597661	-16.18062696667508	-15.87873843185068	-15.4722655162447	-16.49649308668532	-16.15002483619512	-15.21929378714404	-14.96740547832826	-12.61098715328924	-11.74220950481737	-13.6743446087861	-15.95352015265811	-15.59090676165957	-12.05224993629631	-12.53083169181426	-15.14384761354486	-11.22881173658362	-10.18894534376039	-8.033180700066794	-8.580805985628388	-9.40198127673267	-7.790150307808489	-5.804817952002708	-3.519283439891439	4.101366156549034	6.189623544025665	6.035381054370532	7.022026705532198	8.801141254344031	7.829702273776547
-3.699032689070663	-6.440646083286225	-5.614085243362865	-2.883404114946273	-3.126823383737502	-2.855379416664476	-6.459942615079342	-7.541263224881305	-7.575318849172504	-8.213063751075254	-7.226662581676095	-2.931676700404694	-0.4855273018167736	0.1381139305239003	0.7997502319184377	-1.832181296840446	1.849919686081023	3.156404420810475	10.19882517752913	18.14625530424931	17.37710101008699	22.05854295716352	27.47576854974878	29.86604739066928	29.95643705737436	30.90710330175708	31.24219302550523	32.32246205978998	31.5521055961382	30.63390301641303	33.02728956771341	32.9129010008825	30.69098464222776	22.56256734315403	15.58296202544574	9.272232368544792	8.199226888576817	0.3580094784063874	-0.3568631878405881	-0.1469168827139811	-0.5007812674761283	1.563279224029628	1.290131712786973	0.2813924745726126	-0.3378050096782772	-0.1683028305691892	-1.600576647447468	-1.693790717595022	-2.003421916780695	-1.620659389691809	-2.1074987271613	3.032445793928616	-1.70632774235807	-6.78639226522057	-6.843521159898557	-9.144363853408407	-9.61010786015288	-9.715961521497121	-10.41348974824029	-11.92745036551139	-14.43652553302624	-13.94970680377128	-12.08880839126374	-14.58429960696546	-13.40412745336195	-14.92038037178591	-15.10268713305905	-11.32711966821932	-14.08305384863525	-14.72589534413157	-12.77078841275448	-14.96277855798678	-10.32117918603649	-11.75268150301375	-11.88250960078793	-11.41887192095751	-11.41577265450297	-11.3379331018142	-10.97849003689157	-11.21711130104279	-9.9756311246542	-8.627076471688838	-7.090602231990403	-12.56454472238974	-14.75706084928473	-14.69474003470893	-15.52643439888533	-15.08220776674216	-15.84603000154343	-17.38762292524999	-16.58880854411794	-11.929577543264	-16.79764390186688	-14.71070041146575	-14.86632053279115	-17.17867748189644	-18.08538389034362	-17.39599930678332	-17.57308618163873	-17.77857905978323	-16.53509076603055	-16.58733383741651	-16.64337691191355	-15.32367727489466	-16.70628259682016	-14.41776304546732	-14.89526229702284	-12.98921778068464	-13.75237625341134	-13.08393679441227	-11.18041391013759	-12.84525130243361	-15.68203265484115	-14.31285657652373	-13.6277005626161	-9.937447672895132	-9.175664174931967	-9.655482102555794	-9.923161297437019	-10.49014372074458	-4.299202930651347	-3.95884264397273	0.9597933074332161	0.1332287201642828	1.615436845733598	2.599402357425703	4.732114633688582	9.386983046053615
-7.828111106663187	-5.671500367711388	-4.655197514671045	-3.909503982615206	-2.88143915878851	-4.504043896749721	-4.800562583514022	-3.934591548436913	-5.504055384235897	-5.345971920830664	-3.47695661885578	-3.584657558455092	-1.939822791103836	-1.315602340700565	-0.8828120937887434	-0.6557019199975969	0.4442731550369103	8.295972883581612	10.66046230204944	13.2351724866175	19.4879738838913	21.55782823610201	23.49894499306907	26.52522065763262	25.45942443386491	27.92729238447211	29.25791763851603	33.72343156510686	31.51007612355295	31.02024084413415	32.3292703932587	32.30940435497016	32.34088800663812	29.2090476958488	21.66617794054068	15.37404957002121	8.611475762140145	3.10316059935883	2.076939669009164	1.661824177014466	2.687380644399752	2.398098708016761	0.9141877423865594	0.823337511649072	0.560420536628726	1.756772682860145	0.1449270642496288	-2.392759528897557	-2.458200102440941	-2.216027520287952	-3.450502138205565	-1.736246459477456	-4.721875784129736	-6.75680396313561	-9.635324363237373	-11.48134397081509	-9.305519087737053	-8.781252847955216	-9.712162660808531	-13.42366130137268	-14.06360418798516	-12.11377742665201	-12.26892314455284	-11.49030333261541	-10.65745688075793	-14.27487815079476	-15.93833423263462	-16.01202535154729	-16.14134603891171	-14.41268731999102	-16.35489782121675	-14.83635948887513	-14.84994116924531	-11.58011478487418	-11.64910038193824	-11.38222505802736	-8.440521081761233	-11.03453388878569	-11.49743046037176	-12.65444532413787	-12.07343225336103	-12.89883382362657	-15.40353044350886	-14.91693391504333	-14.90717406981423	-16.14457389971537	-16.53211553488256	-15.77052651571051	-17.846659200754	-17.55030384679549	-18.17576381250436	-16.49142686525914	-16.86886368179808	-17.28103253070617	-14.94551963884612	-16.4827530727419	-15.02933515083717	-15.2548921233755	-14.87650268297048	-13.53111382705839	-14.19848238495862	-14.72963345227686	-14.51196196175803	-15.0766604263664	-14.38135227474751	-14.48860756939635	-10.77417464494036	-11.45613592340612	-13.11033399699556	-11.73004020678744	-14.39708403038696	-15.32648529141193	-15.03805741594334	-15.54414019480427	-15.03893987239738	-15.14119657969243	-13.52785992980083	-12.32732299960841	-12.03453975883895	-9.68809856606552	-7.373831128671611	-7.287749964185707	-4.080136230255334	-2.989189532597806	-1.319093625959113	2.577019327718858	4.069395737115684	8.370674671049414
-1.309732139860984	2.501032609660285	3.360512464698814	3.26808093154321	4.610056098882495	4.808462540578347	0.6549541154970768	3.942399216084283	-1.943540766870427	-1.73784343666793	-1.469995625996575	-1.981706037283601	-1.03472390307158	-1.395741302389837	-0.5258921350860248	1.621732260584963	2.304979106776983	7.155007358713505	14.33892420042426	16.91728175680274	18.9541312848597	21.45382327965592	24.82746514600629	25.97004675388473	28.28617084809625	29.93355042984265	30.23177423404093	32.36388576770426	32.78634679824555	33.26341687627539	34.6373160631791	33.47033667987213	32.07997531029957	29.98891616328768	28.77589627729381	22.23690274837239	13.18968795915652	10.34255860158547	5.919919312068373	3.129029779228375	4.507032304759406	2.665216819476029	2.044938934781499	1.324553627690335	-0.09761739155067062	2.820051688330722	2.075417181161754	-3.067593230165983	-4.728128722111961	-4.278255793117836	-6.134279394445429	-6.972496732841336	-6.427176470561761	-7.23567646884689	-7.554556577393299	-5.726921875966752	-8.104794783949302	-9.193709265483761	-10.74961714086362	-11.98353303952877	-10.62953204009605	-12.20527957091608	-12.23573999275351	-11.933345394969	-9.537731448231682	-9.941945283624108	-11.03343557655879	-13.90250855743272	-13.67573993935085	-13.79927111870441	-12.17582928725017	-9.049981871489251	-8.80774210377291	-7.730854476472757	-9.893403257574676	-9.393647975291969	-8.716713126593703	-11.13434002360358	-9.690207427801738	-11.58699598386193	-14.22940779566926	-12.11742006002336	-15.28475520833882	-15.26825055093025	-16.65956566004866	-17.35963722999787	-15.96457444875185	-16.98538891098909	-16.67813562079235	-16.75332807898928	-17.82555157187221	-16.64817918205378	-17.12632735580578	-15.61222956510699	-14.5533668766198	-16.29714222123144	-14.76294324585515	-14.94280283603868	-14.54657840658919	-12.86983223239824	-13.65446387355135	-11.49618137038087	-10.73773105859368	-10.6121752908179	-9.628069708222512	-11.52827433641403	-10.07835411894703	-11.59460749373923	-11.7705857179007	-9.204762088210828	-11.75089281443681	-10.68545642289018	-12.88240089385994	-14.15580256755132	-12.84429176229793	-13.13014889059417	-12.62404551579843	-7.705887781614933	-7.226750836650069	-6.858329418610026	-6.529433467345257	-4.663303199036079	-2.92437793129659	-3.788958625220772	-2.452255741473209	-0.9550510043393388	2.557852545917996	6.980429949193507
-3.905296020644613	0.9049661794468307	0.4500278960163371	0.3617536114292648	3.229558370484028	2.880484321082776	4.316793010132756	5.457760391030774	0.8893786839075517	1.258297024806552	-0.02964807095466426	1.208142482092086	2.137746982842515	1.111725464085424	1.226783289929358	1.790687169062863	2.5815562263206	7.465523568978199	12.45873977543405	17.8572816823561	20.38672519584114	22.6369937552457	25.45510382076054	27.4668782413178	33.71694576514261	32.59163003626318	32.99217274036306	40.72355930558038	42.63836258598903	43.69973183811069	44.67939814372315	43.45899699031671	42.32369077149355	35.58134875784089	27.15229921298067	24.99906513814165	15.76569461533458	11.21693870531575	8.03197601139496	2.421612939773439	3.248364257717327	3.148125896218971	3.866558761817458	0.3650429445937959	1.258709605544283	0.9384475126336156	0.4463736138191337	-5.286742392702706	-4.894222385261429	-7.688800826323501	-7.968380674495222	-8.783652398666533	-8.100929565368716	-5.69717814793097	-7.550826157637715	-4.883076440742826	-6.375650952170105	-7.897079091249793	-10.22139083177092	-10.03741538045014	-8.436540973595584	-9.365296722076096	-9.181284625828908	-8.882016309677226	-8.597541473133276	-6.691475877877537	-9.240919063285276	-8.797154098102709	-9.419884947097529	-10.17863988593723	-10.84917096625088	-10.47052057661119	-11.19620063523965	-9.990281901833185	-8.180990366836255	-5.831402528265158	-4.936288179586938	-5.90502796275814	-5.291991840345389	-6.684555588533243	-6.361204342160903	-6.496602493911467	-10.11460083728056	-11.4962941842559	-13.57216807580608	-13.71459042547349	-13.86138935400481	-13.98463725129511	-14.400542192758	-14.7224723401674	-14.91272052862212	-13.74537702526916	-14.82462427071189	-13.66008882137524	-12.99239234263126	-11.65128170705293	-8.046005163970449	-9.016763966846554	-8.229110140254988	-7.279292914213784	-6.383571179750504	-3.1037305838409	-3.103523657030081	-2.853792469948928	-2.309101667531593	-3.322156631520045	-5.555466378449808	-8.095557052191396	-9.729743107205053	-10.23454585685656	-10.42962628038504	-7.920609050563542	-11.10195985712318	-11.32972319803633	-10.24865477653466	-11.31742206018001	-7.861212104517847	-6.685653850852162	-5.851705256735897	-3.833029496005878	-5.328970926463171	-2.660238639402706	-1.851463780711867	-1.809850024198226	-1.012703790998813	-2.847244585747234	-0.8544099604581845	2.969690382711121
-0.9470476152306446	1.383720643139327	1.612264420849584	1.725170285839454	3.375566888452767	1.992047435573909	4.22725116147987	4.970598834365006	3.474831974640182	3.739715866199106	3.812785664498051	6.206515418658398	6.457630745478184	8.076437474075675	5.98091984649804	5.338469815881638	5.853268448337445	6.946003850274082	13.93750678841809	21.14447303363156	21.46998579574898	22.66299493115076	27.11468014412645	30.9827421014416	36.3838200349478	37.04737101696699	37.5250530094377	43.43652161432863	44.07978828094426	44.94305082185673	45.63329059956493	45.53323509939727	44.01564401250101	37.03774898991662	27.3659189911001	26.3166063126495	15.55064079370345	10.28089955704647	8.986605508258151	4.34276390431674	2.586877955415616	2.442548272050999	5.135687551475655	-0.3967640583326784	-1.208301980335875	-2.798568092365628	-5.875899787409736	-4.133262376789219	-4.467735052092479	-4.353361674106026	-6.28306014675843	-6.854716338840177	-7.055684359409128	-7.851970192677612	-7.661829416635584	-6.104892487542287	-6.826818245192356	-6.18520868952325	-5.691123612553923	-8.25696423453914	-8.724986241349569	-9.688821536436961	-7.576562581545545	-7.151970141182886	-8.859959117185326	-8.046878409596303	-8.254281585365931	-6.916783024121372	-8.234236100112753	-8.396165793690159	-7.539078267035364	-6.604312733987825	-5.710156155826439	-4.440326767962034	-4.152126875849433	-2.297361413302923	-1.811817750255301	-2.109219135887827	-3.277116152605231	-6.412590166448126	-6.719350572182037	-6.896729393172308	-7.497071378426426	-9.458966261009692	-11.05988582788208	-10.34698282693108	-10.45249391774527	-12.14961904218188	-11.21761025430794	-12.05180827030827	-9.031597022692779	-7.441316999387141	-8.411024067121758	-7.361964167984951	-7.725644938970703	-3.532651626253852	-2.280398838086342	-2.815951470418071	-1.172077044481625	-1.484851355968715	-2.089451197496658	-3.289751259292586	-5.656242863472869	-4.807643959697288	-7.022738506966704	-6.128571617583106	-6.832985101249449	-9.056159530125456	-7.238000022147446	-7.489346914718084	-7.610354721423676	-6.834151011686913	-8.795399666606045	-8.725036610509392	-9.207877621973182	-10.1444181765749	-9.667703022943471	-10.45943045249322	-8.852915137957353	-7.697607788564284	-7.656792849804106	-5.742980855592947	-5.301661455193937	-3.348736455844232	-0.7996599327107106	-1.415442931108117	-0.1162425981050887	3.266717684228098
3.552022122974108	2.370444723103788	1.086332057436408	1.84948906229809	2.624309855377618	3.716330672965739	6.673168284876908	7.27560585765255	7.130500725838687	10.3401878870998	10.07858552401282	9.955819698692409	5.550030174733507	5.819013456371636	6.07026405604347	4.508655610675049	7.05701733191998	8.470247009228189	17.17386686637838	23.39910807558161	22.91039624552337	22.49834118614177	27.16763080554472	35.43314825618108	36.01646856152752	36.25632645747669	40.1385515846674	39.52309193366074	42.34607400805456	43.85000230222647	44.42233868633446	45.57363455783911	44.48313459715413	34.91537954771835	28.38390537733324	24.8532460073134	15.33741793833954	8.841129300792232	6.919089190903122	6.884743630457137	0.8526410474917157	-0.8807761981692863	-0.8549507824307341	-2.095521031841685	-2.979651497168845	-3.526581132831154	-3.956465533336058	-2.446058039520267	-1.381620416477688	-0.6387886834286292	1.209141992178417	-1.133799700026429	-3.854968799771541	-6.220083487401212	-6.771953043269406	-6.382643105508691	-7.064048804978569	-5.786566930456104	-6.165373399041044	-5.372555347935332	-5.682148296255406	-7.343517551508285	-5.962149465040966	-6.23221255268038	-5.836213194881253	-6.232744272374333	-7.332466187501865	-5.853028041411761	-6.881619951831908	-8.111995231892791	-7.173870231187493	-5.806581309375048	-3.73942392730234	-3.991259793675056	-3.800833538617042	-0.6257603194650017	-1.379992691220735	-1.998965073515819	-3.158169310037437	-5.301685824090413	-5.394418371703239	-8.337145238523163	-8.044776345631192	-8.039506247368678	-8.62565429392609	-8.075451213493949	-7.639801075471297	-5.687366532123633	-5.075651084617306	-8.239096887286479	-7.501931773936889	-7.563368186580675	-8.513260046233427	-4.773616389502394	-3.261644682321588	-3.758661154662889	-2.891758423916656	-2.807928211039837	0.2813812852189415	-1.759411629746836	-0.8235481201620303	-3.142586292508298	-1.376258816219206	1.883846358885648	1.312806112215782	2.270947390652196	1.654153830695321	-2.417632465948856	-3.344240658491827	-7.724818869806199	-8.122026052703063	-8.587451127617328	-9.414808304610972	-8.859136275487487	-9.407221083279239	-9.213832080229906	-9.695131211157275	-10.65537471354787	-7.124063101684271	-4.670753621652523	-3.822095605371743	-4.291341182207447	-4.96684340791623	-3.538009785585785	-0.3772178372136352	2.71548072393108	2.589833098740257	2.700415883112328
6.459230392217876	3.706714967559719	1.658351560809763	3.222641724343418	2.259280469379433	3.554592089170995	7.269936273457375	9.472909276209009	10.3214231902484	11.05474829813065	10.92639389980332	8.751157399868134	3.974651577885396	5.499586979617845	5.412330966818928	4.388178250591892	4.318051254338116	6.814239575157558	10.75454893447343	13.42507728411815	18.12465906778888	20.52358686210707	23.07049192084077	28.68908168491558	36.21696757945818	35.30504764737222	37.46538751418029	35.94316656820271	36.4055212023064	39.55094848448786	38.39040909611614	42.71177742141006	43.01922877574981	35.57239767592375	31.8055742732459	21.17928434046522	13.13522114044994	6.385355943452083	1.683526714320237	-0.3159938767146571	-0.8453200511957562	-0.3681521122154834	0.4340744750275292	0.06736300351190039	-0.8475041627790461	-1.361453691041532	1.067576141814357	0.3391604169299001	1.175201092052731	2.190981092780817	0.200579962137482	2.738671848912787	-3.310537283019102	-4.879694653951447	-4.081222637082391	-4.289878400469775	-3.148546157424477	-2.843777543652863	-2.928355800907724	-1.563763164681006	-2.934899094651797	-3.284907151763804	-4.190419650647272	-4.767932816709731	-3.74762822790666	-5.902150954815312	-6.183869312257201	-5.520062366027275	-6.544623014868421	-6.668394116761277	-7.254811320256835	-5.153045250494529	-1.312996307810238	-2.564769000096504	-1.52745259392691	0.03456737309832647	-2.050763814555523	-0.8303190591062446	-1.655416496575043	-2.537996252343333	-4.288068702243464	-6.452987789874356	-4.534457713312491	-2.685488401857413	-2.434013010941698	-3.525365886293969	-6.309497383554913	-6.456314707377544	-7.317568319310311	-6.47530553866406	-6.266255975002906	-6.464320412308098	-5.120358580362762	-5.952369566216476	-5.033189200409083	-0.5656456840346777	-0.3390788201543842	-0.1937020616253733	0.306961329482192	-3.649607858532164	-4.381819824952345	-4.525423182768606	0.5417927441590678	0.4723890269978313	0.6258581340970579	2.363787410759585	1.685328084980711	-2.17262303952657	-4.808591903481584	-5.439084686872974	-5.629677975439535	-7.747139641476764	-8.070272010598075	-8.499646627411806	-8.661285194052027	-7.903728255656574	-8.316770922083123	-7.347937533897721	-7.297529674258385	-1.990355815850933	2.568381571440483	2.065909197845741	3.3541851262612	2.549374336265942	-0.9384431702596885	2.641929954917401	2.852240396427476	5.641521177570468
-0.6824521540887645	1.778121756744241	1.822885123088525	1.912157826951386	1.736702578946478	2.500827530901915	2.973319638800632	4.852676209057734	3.745089120162504	6.46705183852589	10.91310833037744	3.873207022737375	2.891968527564529	3.217452624379831	5.225109435528196	4.931473429176492	3.230017656297889	5.510526304152393	7.800334631418991	9.762784650964875	11.89998787572574	19.41582653763922	21.62895320151353	22.54168549943253	25.56725406169207	29.69070177090288	31.56634480961787	33.96458075656193	35.19106839377835	35.46474494747451	36.43663137976742	36.56856883826481	35.88349733048167	32.11389708796582	27.13222232363648	18.95424613176016	11.31298969515191	5.929826593146771	1.11821049694754	-1.414986857718787	1.131306234351712	2.998054023444581	3.302520514504437	3.147149672730791	-1.610392145453517	1.318609706447688	3.929392495077025	4.685650117890276	5.628482972147111	5.35483027775274	-0.03026393139970196	0.8352792001381601	-0.6938401849507159	-0.9155951855042588	-0.3536988954828644	2.644719432678244	1.530933151562465	0.6359940398380388	2.167097813114367	3.084286611819607	1.481687062381127	-0.7593030282171753	-3.207889676378414	-3.556166131369594	-4.13945687727059	-3.901135711516247	-4.839677927269264	-5.568956878043281	-5.488576376979807	-6.010413329048845	-3.751339101280564	-4.649454010673679	-4.773759436682951	-3.996953678370403	-4.938168405892071	-3.545752446418334	-1.762961736649601	-2.800064830961617	-1.721199772590467	-1.754077644078279	-0.7256955988053733	-1.630444225488731	-2.395011959115749	-0.6757680674895141	0.5373716221055247	-1.142361567782558	-3.228504713694946	-4.510994281676204	-3.098270502377403	-2.834034870117762	-1.014800755273598	1.831950996104098	0.6274654657946996	1.14892942322075	1.778874464908142	-1.922454244677738	-2.218892305306071	-1.889717155171581	0.3675410088867466	-0.3202856794472382	-1.087322254095142	0.4190752745993507	-1.142505687598856	0.05682372488394094	-1.020600378950149	-1.569102581075242	-0.4832344971387954	-0.6706646831842988	-2.234792884914469	-1.914869784502145	-3.573128821343545	-4.746306464473264	-6.733681340714526	-6.815083178614913	-5.505340766065075	-5.710014970881872	-4.459447191516034	-3.868741100745325	-3.904667259500656	0.6744911982462725	2.09045316272568	2.024016991606999	1.856704136355063	1.537009633402477	0.8948139917299898	2.0384457484721	3.757906586468209	7.928524704201294
-1.122886271695819	0.0253149365001093	-1.249007283041067	-3.338036612452072	-0.7853965883454066	0.7100765876170101	2.51859666402936	0.7409878517312052	0.7282451671703143	2.411225468229077	8.335820482482347	6.057192485864533	0.7252227221510452	1.474793526024541	3.357964493913613	2.698469358538972	3.635512839535039	4.189471743989998	1.938492241135179	2.836716497250904	4.905032678383151	10.0419683755085	14.11783607441032	16.55550271531834	20.29772052539295	24.32882686010265	27.53487440099346	30.41515996343216	32.88008901138198	33.83424468926574	34.5245009650136	34.9668982057072	35.23422576516481	29.39061700160414	24.1893643786303	15.69627217056075	7.288590605648665	1.932592940921296	-2.542936137187752	-2.960449118813756	-3.107672219876179	-2.724310390966252	1.326150656352723	1.753481177202104	0.3450763800912569	-1.774062169834053	-1.392068106729482	-0.3890008110890903	3.054486708370518	5.205505184623576	2.660535360975985	0.2044282240019868	1.193346744287425	1.744222198748275	2.460647879380474	1.393356046777512	1.152980919193908	2.386507190059376	4.139624914400628	2.723473572573255	3.652204297016681	2.608821010507597	-0.6121966398638961	-2.328828486891553	-2.772223601579071	-3.179286675476021	-4.889557330696903	-4.632887619987343	-5.762757732153574	-5.398020113572329	-4.425629100152406	-4.177390195044154	-3.391091625977964	-3.416752168207381	-3.046799865772385	-1.735986742682172	-3.146969506934397	0.228848165603722	0.628841642475777	0.51429571780983	2.218107032285218	1.906412934374174	0.4904521227896339	0.5306285441142791	0.2915040243686917	-0.4638214429783432	-2.433970912912969	-2.755689948741434	-1.156931138221012	-0.8550509155448651	0.9002185414662449	-0.3558689748687129	1.38432129533453	3.147742441605033	1.06480783095094	2.409518601784612	0.110712669024025	0.3512534265528018	6.393873375635053	7.007821016629748	8.003448823433757	7.764379291683468	7.324228953034662	2.168218460718435	-0.04021488645742011	0.7092227896611405	1.387564141599057	2.615790148123097	4.941637398819523	4.949895044355173	1.828762211444968	-3.220644124420488	-3.783734922601269	-1.454015861140675	-4.430970717993745	-4.507827738404472	-2.026677172059379	-0.8568507135714469	-0.6290301014916224	-1.453777071333946	-1.336129143647042	0.2846254488888462	-0.03318141088513471	1.582912377786784	2.457980694733578	4.318645589059173	6.553130543240229	7.681943658263322
-4.800447438253514	-5.372149789203291	-6.908547502296472	-7.824254390422595	-7.777691562852766	-3.047729526394932	-1.098037644674122	-1.7896833943079	-0.7902098711438441	-0.2328065508734198	-1.800188275608662	-2.941665436768972	-3.500667332421386	0.9565549990623197	1.098606198749309	-0.4117964935862517	3.448257472302856	3.235346588490557	-2.146074951989959	-1.86390219993612	0.3829075794376422	3.369147216020394	8.795869328817389	13.40679936143377	17.55367520256323	21.20524763217389	23.43148810369678	25.61251590751175	27.74507316828658	29.43089574315115	31.80930176587464	32.80928597445529	30.58472247241019	30.09038905134884	19.20263625420978	13.45029434081187	4.202889899219514	-0.8482714496494168	-3.659038412660777	-4.111313750119734	-4.144521912041682	-4.40482052432472	-2.637788018840126	-1.838262608668032	0.4968340902851764	-3.478136123015105	-3.039581634648414	-2.895984564665355	-2.519671381030832	0.6088605571990797	2.730006812393782	-0.4265720049043011	0.436520763431929	1.491299388391525	2.903413046161376	2.672976871494683	3.705107072245028	5.356136118309735	4.196541038332043	3.316567769351082	4.019520593059497	3.50285746197406	2.233412049729822	1.488797667530747	2.813564413643405	1.566394573297856	-1.778527950674857	-2.473290074865105	-4.023340459390084	-3.866102252645987	-3.430327205215974	-2.363828321843272	-1.644307625978939	-1.30838286561368	-0.2445953358887891	-0.2392552750026482	-0.1684401593209657	1.133432726767182	3.525898265205342	4.617459560930001	5.163229270685065	4.466569005121244	3.765723364477907	2.579479854101663	1.036863973389075	1.847565358454005	1.2891724132094	-0.6160759353721517	1.976685810769965	5.975991864096727	5.882075841986733	6.473968132092438	5.024539534533261	3.053285040834879	3.609873884171293	3.758454960014831	3.254459359664338	3.127033299943463	3.76549140085757	6.694956566869905	6.368498815235057	7.797129118741054	9.025959236043434	4.519558091051579	3.090210179359616	1.973781698928036	1.003028626500992	1.302828022434682	0.1754427104328329	3.603519042633252	3.618076072937981	-0.5814994272576826	0.9809329903933417	2.614910071341171	1.505491166121686	2.322941353125714	1.788425511612729	2.521777874481018	2.179111288954516	1.455724235692514	2.405306917720111	1.381947039063277	2.623710569031914	2.363905190178002	3.523809017826864	5.369460387496588	6.441366723130159	7.698380912327764
-10.60412605546637	-9.366256845418917	-8.273100380902406	-8.989607338488753	-9.338875203678811	-8.691812399972321	-8.338174419975275	-7.852217135075989	-5.520613829078002	-1.052848879256317	-4.098184301621046	-9.234307550385381	-6.652251054864195	-5.742139379763756	-5.838645608161499	-4.097815027977816	-3.438626862526718	-6.235135478705189	-5.990568299227021	-3.820538635209658	1.313304191413835	-2.762728344305714	1.362867998529822	5.252938691497718	10.72989887962925	13.74605634596935	15.58343246415996	17.57766718843604	20.20083673340184	26.09309777448564	26.31269269233357	27.69809745975002	26.4312378183098	23.09378384161025	14.88722210143735	8.092445727218376	-0.0231749246752031	-5.712946859752094	-5.626649246737969	-2.56497286546815	-0.9579611778755464	-0.9393679009679943	-3.711079271972835	-6.403640812105891	-7.459339005982201	-6.576218612216849	-5.930411401372396	-5.391294062583455	-2.851751980415827	-2.61880750911223	-1.68701433106466	-0.4015960665020089	0.7198097279159867	5.163924116845408	6.682955940738822	6.602959767218977	7.017695590817823	7.138686435533515	7.930599859088403	5.663674036199353	4.357165179158329	3.668470197120968	3.288283619506501	4.775854520773464	7.103249123599028	5.00408527378184	3.884829318210933	2.441538147046089	2.700294508381063	5.274406032213363	5.339401047024836	6.422710719326261	7.334848896071293	8.407170253228628	8.010831985458964	8.971127908375649	6.649489787982816	3.225821593532714	4.329942371559071	4.871530115991646	6.830015333757956	7.318244597328601	6.541226900655346	2.766082346748817	1.976478523462873	3.392311401907477	3.813029730108525	1.915774563380211	3.065793752199198	3.294062838145294	3.388864629036419	6.723680118835091	4.910117672911156	7.560885293878783	5.721186450055626	4.620981198036446	4.711892876306081	4.769861537459235	6.478817427508659	4.247349745363948	3.407727394211861	3.019956997702536	3.538472145289774	5.981748696873922	4.284448369112908	3.460841492326978	5.815004812763902	5.938107874728985	6.840452682631337	8.9036227019119	7.831268899650695	3.355748961642888	1.048217945443099	4.95617389982246	5.221701085318131	2.376755109413239	3.254889559116918	2.893405766670639	4.526146675512621	5.199243559395882	5.167550311976356	6.379314919144065	5.971472665789804	4.809377788997608	5.282422460003716	6.150312196137463	7.792331570828594	7.798321310347319
-11.64930526832168	-12.64725485782128	-12.74632842041541	-11.25985536093552	-11.69622502405716	-11.70803003229381	-11.76556054939604	-10.31582831319093	-8.955340456475085	-8.338752057048055	-8.927655729775552	-11.34117822137685	-6.793106932115222	-6.780617307536687	-8.213014304038836	-9.815177670613025	-9.277599880657561	-10.48207200096158	-8.584566214814032	-6.887438672822668	-4.116843815873835	-3.932053007443585	-3.498825873453711	0.2045169567699077	4.381308876061297	6.957922610834004	9.995717266282696	13.80112284522457	15.65186138798009	17.61530083805019	19.91357700897933	21.74287956702594	22.54409307413877	16.99127020961163	9.515543852287891	3.581525091240877	-2.602845765055292	-6.859963639359478	-8.517342589337318	-10.15379251965871	-5.468029677171927	-5.177958474864539	-5.758832010205253	-10.54118750008593	-10.34023101112567	-9.999029894514393	-8.866956209521675	-8.2464175069139	-7.401600854561082	-5.682256272701807	-1.883371564565493	-2.377736252027574	-2.152995007010247	-0.3741490459349848	3.671483352029043	3.655652771346212	5.680509411533393	7.690574054312577	5.365081388170438	3.442550313688827	2.400936932388561	3.347414909280587	3.792453167158243	6.207627413903708	7.569722719769118	8.383536343869594	8.363024460512605	8.202910456804688	5.729039816821057	3.833618787476013	3.524000800783938	3.586923735452444	5.369470128776243	6.074078124863121	6.947688390637495	10.07607038108807	9.566944506250707	6.564869958663735	3.308355408563472	3.094511501188663	3.686494076766309	4.230198795288118	5.675140685121335	5.807737231381395	4.932630903832461	4.885527733813461	4.048000334529092	5.442750794569406	5.754707170571749	4.045983774412804	5.521163918572768	5.287716277526641	5.630736545881859	5.9744938249531	5.248430715520101	5.204022794244167	5.100599959994696	6.50220175723652	4.015144330830367	4.523402743241462	4.683981887601647	4.407156794284873	5.032719059385073	4.60386247491536	3.872635990471252	3.651350356096003	3.90274751345143	4.647342591051682	5.334582819541822	9.057721519514132	9.368173913922135	5.962896826670601	4.132174367196171	5.073927888052481	4.466563527993856	4.263951257048461	4.701457004873873	6.074456527595487	6.618559841013507	7.168384803337688	7.77070964272383	7.314653712265738	7.26462752721585	6.407625386860957	7.70416961270098	10.27017985439107	12.25275952640465	13.40772212760947
-17.49795293100351	-16.14728006120609	-16.05904093628351	-14.61755444739632	-14.82532622759427	-10.38184178546246	-14.34665752934842	-13.69913665530615	-12.48562850720111	-12.48183225430375	-11.27829118562656	-14.14119625158679	-15.0408071633168	-8.371522538092705	-13.68289474370511	-13.07517697058006	-13.0767704592046	-12.24659303820866	-12.87101509409527	-12.01047854044151	-11.05647706949225	-8.808854171278199	-7.367501701227269	-4.16198418398136	-0.7141666486716645	1.94514610621502	4.076945764029858	7.05502558607273	9.834646612801663	13.42245823128874	14.04971972385459	15.2825254408323	14.04187489565857	9.860995184893483	4.572911040296475	-1.555187294890516	-7.576273405895535	-7.532945768906018	-12.92301865761561	-15.05428948176166	-12.83862639816837	-8.530830418133064	-7.813956761214286	-12.94708999635725	-13.57856988947592	-12.63217354489024	-11.91433502854488	-10.78279934682124	-10.80256502750566	-10.10622771266389	-5.828807684944138	-5.112593354983034	-5.537390955875452	-3.028220970909047	0.6545567171851587	-1.021105343780135	1.846998200218025	4.762362044708709	3.8787901529777	2.275603166762181	1.590525233071617	2.295058955157174	2.749304316588393	3.410640037977032	3.711385048175913	4.341217325906513	3.92180659604179	3.793906402396772	3.882103897369035	2.522797206275584	3.708588140999012	3.709719322855847	3.583518034953499	3.959013601397459	4.824767885727738	5.298298349068034	5.844651131999967	6.005682698774848	5.979950027274555	6.324523119718549	8.205691701059351	8.747610046638101	8.829308651814898	10.19574734258637	9.861611040089912	9.189444590749758	8.612148184189408	7.047597333339581	10.0924438980594	8.025018916089351	7.099119420883653	7.077652719926675	7.612141764257132	8.267827685603777	8.65207573623411	8.123966384619763	6.94954413349663	6.662811746798468	7.799368079308863	6.95013562479059	7.559403029787262	11.28585867638549	9.855690909338705	11.72203088955678	7.003379595315096	4.71927012017585	4.08550608138529	4.190531589456498	4.955040057706924	6.147049418801146	8.293723328016142	5.037350682837541	4.053007015516869	10.65877212980701	10.56477182206953	9.598292699810145	11.5983732565312	7.81855349322899	8.097707327531111	7.411270550963252	7.788202861582818	8.354649606004102	6.926873846089904	7.37311637734274	7.64767605408116	7.345387610802277	9.232431767577339	10.18136529922424
-17.59851340505369	-19.19244286995439	-19.83899279913564	-19.18405971289809	-17.9644184910926	-14.74754666664597	-16.65138158839588	-15.35993708576194	-14.33565134279607	-14.14498854454536	-13.65540421068405	-14.6853471193694	-16.06284330911592	-15.92783865118534	-16.29145901470056	-16.7123719749311	-14.73772645505539	-15.75481654653828	-12.89653610372804	-12.54436923298539	-14.95994792800914	-13.51983970312219	-12.30669149500679	-9.456426484455562	-6.206073867807618	-3.614432752649464	-0.7612556294081116	2.071185874913709	4.896759222376431	6.344227946470227	7.391932898793584	7.605694751228043	7.146812423317755	4.187825361645992	0.9293423855637855	0.3191033248216115	-5.709456360058908	-12.7941601751676	-12.66714156896927	-15.68331716868238	-14.46854841212397	-12.89114279379112	-14.13043387440166	-15.66647287084865	-15.42984640379933	-16.38753177522329	-12.16916286004616	-14.02862533360789	-12.18960893513938	-10.33771630895254	-11.52817197336486	-10.87617872181571	-10.38845584319009	-8.050997554002038	-2.016658204252195	-4.085530428592676	-3.32076814122874	-1.428027673987231	-1.420487981240768	-0.9210280245445119	-0.4547022887488481	1.648359324114068	2.426676991422738	2.574785860899283	3.661710115199156	3.70233056426224	3.933680851027248	2.481264291143077	2.725717939584257	2.581718483525407	2.51137286119004	3.106516072940423	4.821011061277318	6.370851786922202	6.089556460828845	6.665021934302132	7.238922562080518	8.57110514731869	7.457819850705363	7.535780435770079	8.223760006679157	11.58011176727413	8.257148017560979	11.32317755616793	10.33004449033902	9.529302808275588	14.24593788296275	15.75898651770174	16.29839471403218	17.15979488707748	17.39577821449674	16.17843972132857	13.47096897359796	9.586379905981119	9.637231969320567	9.001126248091623	9.445451216847971	10.84309934283516	12.6802645560789	12.76483400692968	12.42931724348028	13.63946999658202	13.71135733520447	14.17930662505455	12.35394919034815	10.5188481310189	10.92969970709066	10.15365489067966	9.623107197469892	8.960690020673667	6.808908368852087	5.187133589050234	4.956120652130039	5.253451558966276	7.432152468365359	7.380814355008511	7.777173590035886	8.353780545226641	9.383772049734205	8.534762821837035	7.973428196874806	7.791920987874278	8.085270957825742	6.713577229989426	6.765299690551103	7.277884398815047	6.038448438238845	6.314581479087622
-20.45051367196902	-20.01848373345567	-20.9332454636847	-20.9403758123276	-19.19688990286213	-15.21294735514419	-14.30899504613177	-18.60710447023021	-17.57655082606922	-15.60130339236795	-14.88868090732603	-15.30416187439846	-16.29879281789911	-16.47443089692922	-16.53615414694463	-17.10353545682787	-17.31332827772172	-17.56897111227116	-16.47839813907805	-11.93679067031928	-15.53124180715139	-15.23901322461978	-14.33388870628045	-13.26641106690698	-10.69339595488427	-9.206881908794941	-5.993397139253972	-3.755982133721801	-1.777034267771938	0.4674130087352637	2.326668020474528	2.249340316741353	1.072284395361834	-2.527804830512963	-2.863916149849558	-0.7598636659458009	-7.627123509590547	-12.76766756816278	-12.91230984212874	-15.45512892863272	-17.14661799592369	-17.75953060527718	-16.08303247880116	-16.54978760781313	-15.02474439673747	-18.18028794662814	-17.90371283579864	-17.64480815454056	-16.46185079924589	-11.35214096868083	-11.20778406847967	-13.74790274488805	-13.59139998413212	-13.26564149750939	-12.07877640127717	-10.20744290151904	-8.323231691842722	-5.571331422897856	-2.830837806839185	1.526069243756808	-0.6269889866725862	-1.360272793804626	0.7337503994878034	1.164776813024019	1.618138853901144	2.563803566296599	2.417088808041882	1.564691634157526	1.592826781486281	2.145219347507151	1.833439347123459	3.814777064464664	3.50779417763971	7.450862685715919	8.536014516236293	6.511970841651191	7.414354802144629	9.637456285875999	7.860829898087161	10.13876608106517	12.31883148126261	12.15152839854682	14.03641292555562	13.69106870822429	13.07684045056664	13.05109333232332	13.89162866566409	14.98213440143837	15.796023460122	15.98749861013277	17.55791209459699	17.75782612326731	15.19549058331944	11.97552999439273	11.23688945272409	11.54302083637106	10.65835764185562	10.68477342584288	10.82203736729707	11.20243284094681	11.37344125958066	13.36964430539393	12.83001863598167	12.47377257507537	13.81561212639457	10.6789999251356	9.539172184354584	9.961629420759266	9.068225535479655	8.232243913057573	8.945254899313454	9.367141436070881	9.081043700787859	9.632024632889113	8.58672408395131	9.074758184178506	8.405230109712136	11.8769214218911	9.243620032563399	10.18916471649743	7.798519430580825	7.074581585468252	7.754951407924125	6.999701322937824	5.680192923699451	6.693996538482736	6.921915902227568	7.608140718884499
-22.89091547649238	-20.87675606609048	-20.63455439509011	-20.80540886436773	-20.21286926880569	-20.02527076918852	-18.62993987864812	-18.752412432196	-18.88513996932465	-17.44810631308206	-17.21650247659903	-16.98620706523209	-16.24839864719675	-17.42448491109843	-16.59215589207804	-17.14259746164316	-18.69448109273196	-17.73213094606749	-17.53841224385934	-17.25340301157723	-16.16544276410613	-16.70015456650523	-15.58624473101386	-15.33848768096439	-14.29039866291089	-12.74540622491713	-10.6383246985402	-7.400709679695581	-7.359777013766745	-5.601269289414091	-3.744310527375831	-3.56920360974425	-3.896493912248445	-5.524626205071201	-2.13845223740023	2.640400057595031	-5.576363077835424	-11.9118851620924	-16.67132002389803	-14.19334149390795	-17.47129907631052	-18.94674858286928	-18.39359079756531	-17.65743432912404	-16.38532884935134	-14.75039233962008	-16.7757806801018	-15.47194022880774	-17.57164980302872	-17.04362762602389	-15.38916282821523	-16.34695934675088	-15.67658265691557	-14.57653216921503	-14.30946579808219	-12.88847533820396	-12.29286382731857	-10.22539487161595	-9.29670268935061	-7.849440289325656	-4.893320288924258	-3.267502483620348	-1.636091980799591	-1.181863532459914	-1.389734894531415	0.8946420503569925	0.5763430655134982	0.5473817118683257	-1.091344695107779	0.9386911445886881	2.957959159546476	1.622760197955415	2.671423677231871	3.058498705054831	3.180908033404933	4.23772320194081	5.152637358114646	8.443936256770371	5.943575061569277	7.652430654625221	10.26495422679312	12.21557067453381	12.33300563470442	14.12698984287027	13.90329573362828	13.87167433517789	13.60018147681694	16.25390233183435	17.49903415858796	17.08270180025949	18.05566094253368	18.4657654138403	15.16544667905129	13.59267227906673	12.13630576829195	11.24483859686961	11.58155372808977	13.11616240744195	11.43433842050155	11.30642942803456	10.86189621936484	9.783256027183256	10.60093826993574	9.933090488747553	11.04333746920958	10.75809806833109	10.42950023179225	9.967435100198486	10.13181172909924	8.820563875845437	9.873494849076508	11.68477151436207	11.03677805253039	12.80146840819748	10.8097221447502	9.447036688982337	8.598128016568012	7.802740456931701	7.109636903866033	8.435939145819191	6.982930216356522	7.45008046026885	7.385244327877103	8.801467137146346	5.173286849948113	7.16498929867646	8.747916200375073	3.292181571097217
-20.06891734846963	-20.32840840730563	-17.52918697413449	-17.36420936370101	-16.97476111753838	-18.12925342811616	-18.490188906333	-18.19522093707653	-16.91516923159921	-17.73977281458176	-17.01276325950172	-16.67733721506423	-16.70838176873329	-17.0823758906418	-15.96642824701931	-15.01110624682002	-16.62938386134212	-19.13119453707787	-18.38442736300982	-18.08529012357843	-18.49573496765618	-17.80785304041942	-17.39799439795797	-15.75528748763722	-15.80912843351521	-11.20928679586308	-10.71947686246625	-10.91445180861641	-10.24090766356616	-10.17731509061281	-6.669975998894927	-3.418610986564232	-3.515450656296963	-4.67258906251638	-0.2233950040957211	0.4444392442590299	-3.204304246867395	-12.37553292297187	-16.15553635615825	-17.691312434602	-17.79159239564027	-17.48232831535904	-16.28901761795356	-15.06078000524198	-12.72098698730304	-11.24811453434299	-12.02259764531553	-11.06020449105068	-11.20201431586432	-12.74761677013589	-8.597481945314712	-7.395627595823186	-7.905595172275298	-6.395516643361162	-8.5991251246746	-10.69604005477979	-11.07173519696076	-11.15745387979595	-10.15826859341357	-9.47001735790181	-9.377211404279052	-7.419332235754098	-6.403589347226671	-4.854771432931642	-2.974183469325425	-2.326312625236369	-3.536865132642959	-2.972517019137058	-3.12171290941447	-0.4232141399431271	-1.701566969072019	-1.696968727859144	1.479776244238735	2.445143090047168	2.667762147872168	2.042698112937387	3.393712206182272	3.738810958671024	3.666378809449554	8.218874566121485	6.040096295755404	6.421818672340237	6.928447872236632	11.66225071191434	13.44342726621937	11.00216059530737	10.86461974664832	8.681729391055285	8.639027816355167	11.42676661262186	13.83864211015401	15.42277306768796	15.08872875003647	16.75996634476468	15.12332398731559	12.07061638541711	10.31517494028401	11.73628977067341	9.997402248532808	10.66059192156251	10.29632988960611	12.18792751703654	11.58811054859132	11.41387798854748	10.79514590000963	11.16252174780851	14.09749056897545	12.27857191640004	9.31359444238575	8.981010238214196	9.809890073568283	7.78027962001363	5.791473004282068	10.30758697594359	12.10094607694134	7.933868466152489	8.466870741681078	6.371380129999181	4.838489965658596	5.246463824791533	5.045956454106715	6.033242921583849	5.605615813916984	8.675672478582044	2.647882894297311	-0.2388209397497576	-0.6811411475032969	-1.921873159665779
-12.40342454627429	-13.20745689384898	-13.04461729510601	-13.36864739057492	-11.37176110960365	-11.97652655824839	-11.21111050932026	-15.37110506843848	-15.43940794984115	-15.62845936914411	-14.60453733875443	-10.07519741706855	-14.44323176420741	-13.9087325436669	-14.73917156497745	-14.9842613352163	-14.58712243405807	-19.20863488868349	-19.7713664316887	-18.81149741704701	-19.40924669962155	-18.3191360669303	-18.35310174928446	-15.7181824007948	-15.18906704567087	-10.78943980745453	-9.166503211269486	-10.248555838008	-8.542667210887089	-8.993899301314485	-6.54369216440972	-2.102644188538676	-5.886868428926675	-5.955297256107599	-4.451599298911646	-6.478879055158444	-8.45391387272241	-12.01954000599281	-12.22782149799815	-13.64268151466868	-12.33031118449026	-13.09850298375201	-13.53888517177714	-15.20757641688158	-14.33250994485917	-13.89810855024581	-8.510941834081251	-7.579731522943462	-8.068099269966211	-6.912511344315192	-9.549659112795325	-11.8257678309698	-11.38365649535481	-11.36329292010353	-8.593458588831254	-10.20468213834101	-11.52950725901087	-10.2691664445569	-10.72972158370081	-9.853901240093506	-9.728115179070841	-9.52305181798684	-7.209689206389328	-7.130007382648387	-5.386750006446022	-4.796454056515074	-6.032629675305742	-5.387627977517752	-5.751415606049505	-6.144695690381212	-4.130915423551897	-5.855614924312675	-3.388033252624609	1.547001004261347	0.6515207796834943	0.4112399576369512	0.9910369703716242	0.6733697252377624	1.264672288179838	1.863612984470763	4.235474082636983	2.874925021714375	3.260391470478282	6.684760809877275	5.836136497213374	6.291297056379108	7.898271051663585	7.694177981560529	7.534659465770801	7.066188600347573	13.32190015029818	14.82832497492825	15.50662285199144	16.30829347549201	15.7983850527566	12.68784761832092	8.771422163290651	10.27408434448876	10.82227686050288	9.485972646964115	10.53826057410396	10.65505840550003	13.49148289836995	9.958279759081108	9.13965490848102	10.2369071558079	12.15423723791605	11.11568315931942	9.677045153778693	8.218565295844996	8.150845798593195	7.518931721684112	4.207910596124179	3.826383777190927	7.131319635875343	7.77280640542233	6.432338839025363	7.134666181725208	5.494673414296699	2.474721791451543	0.817795605167646	-0.3321926680009142	-0.7017890081264682	-1.747671293697522	-2.211782358702976	-4.03444190188452	-6.017091224741421	-6.883775597733347
-18.0591404475058	-16.54445964712528	-15.03370631904556	-13.87587331778582	-13.23123832717437	-9.681777282509131	-12.53511105667673	-12.68172664810982	-12.47548345036489	-11.88621573152096	-13.03452612590394	-13.08962333855229	-12.46791956764463	-12.74138116259456	-13.18019958297879	-13.51730909034515	-13.53281051076519	-16.10164987357194	-16.67977883100156	-13.7064127495216	-14.4393197144785	-18.51423131940825	-17.99713023113961	-16.74782056346842	-15.08628407269816	-13.86093789790471	-13.37923475982117	-11.79575428910681	-11.67422500667078	-8.279895764021575	-8.117717917373142	-8.722253548538674	-4.36054028586102	-6.17584129897125	-4.129959395022524	-7.712775637122945	-8.854980451619724	-11.46034741169544	-12.26486932419061	-12.62105506015425	-12.16125383300033	-11.9649681182139	-12.30239257818997	-9.910351533900894	-9.290714371176705	-8.749329593645172	-10.3528596176651	-10.34822020287015	-8.893004769109098	-6.410462902598766	-6.414350993773695	-7.785671869194516	-9.235627537376644	-7.998293698827524	-3.723719997906528	-5.559313358267019	-6.135026089389783	-6.9905511205408	-6.375816518343242	-7.986902598048232	-7.003172139222414	-7.400036399560889	-7.133202323266516	-4.185979862873921	-5.776769874964572	-4.933848099884557	-4.313032136975096	-4.030566476083209	-3.434478821188577	-5.330637276301445	-3.192426651787798	-3.581354604613921	-5.679165281025178	-5.169888286114201	-5.072517244375717	-3.542335831411037	-2.521772916388784	0.3489715513593978	-1.706524620870709	-2.475619161442467	-0.3567595291740417	-1.45854793965168	-0.2238272309704712	-1.068645933813343	0.6292703625547347	2.404353306357564	3.767339093203645	4.75989384386861	4.674830352470281	4.175624268283173	3.527614566901491	5.525801862828132	10.3063084284762	11.5215199069018	15.33442487382166	10.17243800048715	7.470553483154561	8.742392355232198	9.193706482918117	10.79281135625359	9.37046251067278	6.897017907648944	10.61905947004772	8.911213320458842	8.213248111052962	8.04854764899909	11.75806901633274	14.19825255175869	10.56316297543577	7.379283561208069	4.781392226199557	4.075607949671507	2.195641591215747	-0.5768681215129732	1.763281281369188	1.226660424244869	1.324470384958602	0.559197196178161	1.974563505166088	0.8537172091600951	-3.244420660391484	0.3310751792034807	-1.868023025660932	-4.448738429187074	-4.630250623106576	-6.901784346088789	-7.455805263042123	-10.30837099892125
-12.71527570368059	-14.46268296970686	-14.71950815985488	-14.26048529285569	-13.34009030139634	-8.549694785802529	-10.89886748669264	-11.12957897470437	-10.48640432575681	-11.45663797744066	-11.87110856982136	-11.05138802125325	-11.23253444065597	-8.613597424797035	-6.709545803611377	-7.583016338588635	-6.785240936734681	-8.436256508859174	-11.16520751382103	-10.68820725527601	-10.4335025304859	-8.69703481909275	-11.00579703328046	-10.03799153516462	-10.57763631498796	-9.88468776533108	-8.37587972174623	-8.616342866227455	-8.806670242452299	-8.282685120603901	-7.885073485193544	-4.983582720379076	-7.18113486834153	-6.95558629806149	-4.531886038452058	-7.780533229104719	-7.329231205448025	-6.329581568478659	-6.754687313844585	-6.935575074504129	-8.641294871074507	-7.130326348220365	-5.25358759304919	-2.652441076434457	-1.333792844445725	-1.443544724292622	-0.2282955232535642	-2.715228496987436	-6.96772796424824	-8.104447279791657	-6.72476139476035	-4.555161924668823	-6.281954314989775	-4.938341138464637	-2.386737668237402	-0.2708131550288044	0.7074847718478168	0.9269945436593048	-1.356797523427986	-3.746001806275899	-5.49054957432611	-3.513742197426097	-2.918106115442868	-2.954341859555257	-2.538215772266767	-2.641741193896166	0.1300977515493287	1.695869531287656	-2.012698416944943	-1.972174813906747	-5.103155434453299	-2.996093205093246	-3.637988175843475	-4.814233631703587	-3.576579866164877	-2.710252385533522	-4.262166257191325	-3.485431115644303	-4.085779361750213	-3.793196684661893	-3.398201049613533	-3.872873978118321	-2.497811496060308	-3.070768383734901	-1.307856462598068	-0.9964121300010902	-0.5437034162370651	2.615979900840557	1.505097409255711	2.408318883725428	1.888124884549882	0.9288013670390569	3.117467686798477	4.481328668918081	5.121677853073265	4.253106417010144	4.32974161164509	3.656917617248155	4.753433029820826	8.577118019047248	5.42898572740404	2.837573996185085	3.504710873350518	5.27279208681523	6.246808788113754	6.298116403218444	5.504681610121452	4.605770866669218	5.355161605933688	2.92001217368454	2.869236541260761	1.496912586220049	-0.4895160649762147	-2.072342814164585	-3.273169242369761	-2.045782844952328	-3.597259994587773	-4.312682676954751	0.202012167836358	-0.2385476899663672	-5.223253363348249	-7.79303857961537	-7.743657677752708	-4.736791124563865	-7.838750241766718	-8.48316231555782	-9.961518971437727	-10.30991426400283
-15.41684184405304	-12.54504021078213	-10.41036141695699	-11.1820405571068	-10.74426202567514	-9.347857025848214	-10.75249076545157	-9.73568681507561	-10.39523574755822	-9.996017823475256	-10.05235367457774	-11.27360192956971	-9.74563733131933	-7.926992228781074	-7.685008727494022	-6.586968471582566	-8.513128450961602	-10.86736370198432	-11.5673523665788	-12.73427069042404	-11.76215042048193	-11.57035615203512	-10.36657325517854	-6.009304523903268	-1.397273437988304	0.09782950605659835	-0.1478383216629595	-0.008631842835711723	-1.621699489027492	-5.221640892558867	-4.180616987514668	-5.143083782644624	-6.093246479209085	-5.877983215973529	-4.441821180296529	-4.920895217446457	-6.729634103746093	-4.946105596886866	-4.787488743913684	-4.066974006341582	-5.171267809227572	-4.357766547544429	-4.042893271706646	-4.244923506212729	-5.578827909323252	-5.239953780928658	-3.031980782762787	-0.5851568456494647	-2.882826199450676	-6.407396520446923	-3.196601227988538	-4.098394434575425	-3.514590203474256	-2.779742036409687	-3.849636387852399	-3.533882485993104	-3.38994039003768	-3.429885582393581	-0.7667558393155787	-1.701003399823662	-1.197645672499675	0.5459075874798032	3.137595243734836	3.927479583841091	4.214775500027201	1.670610524283234	3.144071698341463	2.76530956299456	-0.6757423801126947	-1.673627583026303	-3.508393605987351	-2.514318551650206	-1.063535855869361	0.6576671540643702	1.044030955073481	1.222092671377766	0.3613282808304916	-1.059794756089161	-0.7882021909420587	-1.35886045600131	-1.963162818719013	-1.264895713507258	-1.94888783792311	-1.039791907284723	1.55039028517615	-1.265795686683589	0.07789862456831997	-0.3065257777840884	-0.08949534518842484	1.137158124811435	2.157301489758993	2.947606405771467	2.432212162464623	3.659255398338303	2.98729413225135	1.871792320991517	2.084424961160209	1.825269290877657	2.274931603719835	3.336145497080338	2.302227236198235	1.872959433201515	1.98833374382184	2.09619958723556	2.804499029881356	1.618394718988441	2.078036578222111	1.597780279274502	0.6256696479246671	0.3451212287176304	0.6339483924950287	-1.356599971628896	-2.554676473702784	-3.74390092072764	-4.799400937365817	-4.754593963652098	-6.297631789270838	-6.774808949706937	-8.214507085065236	-7.92231359337643	-8.837276684305209	-9.565470375606651	-8.831841115266229	-9.912796180624241	-10.79458620877352	-12.86352756778444	-13.78857933122555	-10.11675826806749
