-7.106696363118346	-6.322927740826088	-7.121155906605473	-6.013730456476495	-7.447468908393532	-5.850982017221085	-6.145663986712087	-6.940394638990739	-7.175964297104436	-6.6338759482095	-7.064286011075644	-5.863726703859541	-6.066388646407113	-6.14067913178674	-4.392308819037623	-4.740749260252038	-4.743744143337985	-5.642312746706793	-5.97558404841493	-5.292874424700194	-5.976122063611463	-11.47266894344149	-8.789350834986656	-6.607050768039798	-6.685804023558767	-10.98334318445443	-13.18650911215096	-35.92807003745574	-53.03917051576208	-36.07784892267016	-18.3039946416357	-11.8418974400675	-7.484813486588777	-0.4027380575360837	-6.394135803569313	-31.06811202792452	-12.1308191625973	-13.25521172345501	-32.00368157722369	-35.80637749373941	-22.97953967997589	-11.10065653019048	-3.938582891453464	-2.119545247900632	-2.806601175075841	-2.043593191701717	-1.205045283617977	1.824368551935009	69.27565060812618	95.48431157441139	103.8792685241694	110.3295165892639	109.5465503001118	94.62508945319857	97.36453629980485	90.97588000188901	72.77233980465454	59.00693697080537	65.26616378202168	81.00996054210043	88.23683038422978	58.41794736014857	54.37682612873245	63.70512517351631	49.96603457172813	47.41568063975159	39.69434892105083	45.27746376468968	43.07192763612834	51.68892550007369	63.08768605932748	64.12578459255265	63.12480998586932	66.49241458448769	72.15396321890411	74.25337162017982	71.74337664238043	62.34557620554818	16.80170488876828	-30.482462163074	-28.14323726411858	-15.25732466318709	8.644040619796655	12.22938090629749	9.83299489470258	-5.429090995253446	-18.91663422392627	-12.86045645121179	-5.159747179529646	1.86808001036853	9.67188587481337	9.004040098788053	4.24948724853158	4.781731981516387	4.901376342326841	-28.90335261759247	-28.50661770251845	5.074093854967572	8.01463277602349	-3.555017088535308	-13.17238332901789	-13.53536526172107	-6.232586198289596	7.577537582076786	8.685366609653144	3.125628775897184	9.246257007349925	14.05311623388774	21.98501268312317	10.88659915161385	0.6786093938458606	4.210572095426926	16.42087694412731	18.34324093942276	10.31512838517992	3.260820758826071	-22.1213586108	-70.71915502581646	-59.27382329774374	-42.86133039016164	-33.04639411486548	-36.19855649379727	-23.40121251776434	25.55694499624003	24.89889548029136	25.32593149468649	22.47048726675807	18.48133760391677	6.970407056943614	15.30920508720959	28.16345054430737	29.24853945052861	21.82742367271921	-4.833324281432567	-53.85767039619487	-52.86490632431581	-39.40634513197573	-39.02119189792708	-55.24863311591447	-106.9740888899077	-90.59032776749413	-83.99486681274672	-66.96813557833809	-49.69231808208212	-109.294424603373	-64.13639756868074	35.27506848370545	35.42604948477496	32.75530689765539	22.20581337214016	23.76256788503424	-31.6124199754238	-85.13859065650249	-80.91896148469436	-78.4560967707952	-102.1684406022631	-98.9112153630104	-95.1909320052948	33.5737741312126	43.46385154232111	41.87508792829449
-16.8375639250811	-16.22099441787945	-15.78528777849659	-15.63494799154424	-14.63803827864659	-14.29586111002449	-15.32932589803253	-14.15125992786963	-14.37480109180312	-15.54674602627779	-13.86510975254612	-14.46106222312143	-14.51477301114128	-14.47091838426152	-14.76028639727946	-13.82945450345751	-12.93688302717364	-16.42559547551205	-15.16421936310181	-15.65386121967286	-16.63735319914088	-19.7788826451408	-16.96870112474304	-15.01992713523595	-13.96995806174616	-19.64981713767209	-23.0164858123816	-46.78029880070753	-63.9560346091333	-43.25167468428079	-27.2414555055396	-20.67064442953692	-16.72024307206772	-8.570350389200982	-14.32528197109862	-39.14985667190867	-18.94950229161289	-21.41520229687134	-39.71110124426417	-44.8662136932677	-28.47123861556994	-16.14985907198075	-12.68512814062221	-11.4780918668055	-11.25685823085648	-11.36477711393964	-11.35569153072079	-5.659374280768944	58.44959492266695	81.21854620000107	90.07647317048024	98.71672091036633	98.54055880031486	84.14012870775133	86.92047433776523	82.72898711545173	64.03241432170412	50.14160151613002	55.66275400037109	72.11404225947592	78.46623971605577	48.14289040560105	45.20846749520369	53.81296728003909	41.32938193824049	40.23823644211289	29.86288547469191	37.93361387106391	34.50380035388416	41.60846714048371	56.06687999125974	56.85711216322365	52.48107994407601	57.9204283824043	64.03738930036305	65.7700930007438	63.45865247859568	52.41256766279048	9.00831901134211	-39.93401424606102	-38.30547854913143	-24.62236430154633	-0.2157892657126865	2.505082099200152	1.491629035522621	-15.07249637746123	-30.47035024397331	-21.73047573224009	-13.22345817785273	-7.981613217811272	0.6945077365142112	0.06155486999006143	-4.600946996862533	-4.47738582972282	-5.518078236985488	-39.39106057692693	-42.27715338689676	-3.629455136054119	2.152305762674985	-11.17936508850974	-21.35073569969471	-20.37250712885172	-15.23424932216811	-2.751675206933129	-2.055243653178792	-8.327996260569506	-1.807305535625673	4.641735255124075	10.70853112720488	0.6939529835931069	-10.40175548305214	-6.706825944895172	8.254796565666794	6.179621983454297	-1.766708268140761	-7.682348004303222	-32.79021323590405	-76.54042263013329	-62.50827371148007	-49.50681288960584	-38.99930345705758	-44.75388081375056	-16.36189053233872	19.31790274066893	17.12543292258985	16.67172546073445	13.18671134791366	11.07884135823491	-3.552032040368204	4.358511456861052	18.31680802599512	20.69253625811852	10.97914841606001	-16.51022293782562	-61.91812096582397	-59.63323240376475	-46.47530240614967	-44.30568531278202	-61.32383673981901	-113.5514969631716	-99.44270025702954	-92.20213804272871	-79.14317095467494	-60.69981527900016	-118.4818036229021	-68.53425326545091	28.26297874734546	28.60695891892279	26.92252593211559	17.85930284782536	15.30723669855679	-39.55311313562613	-92.27523588881391	-88.71255876244778	-87.65203551953354	-109.4909153177966	-105.7014198025178	-102.6465503693489	4.395679551510753	35.12356527890775	35.1849915550349
-12.81775393927108	-14.11459434985399	-14.14776785996915	-14.43620918958842	-15.0234505491343	-14.69068638976987	-14.06705127179197	-14.81666880424061	-13.37619708195625	-13.77180233306287	-14.39096521947956	-13.7187529609057	-13.71012197988013	-14.03116228784405	-12.77910423776982	-13.42757958718945	-13.70496732058795	-14.14455554313893	-15.21052330849558	-13.60303865244266	-13.7304263620978	-20.02341615793757	-15.78967755536097	-13.71132772813387	-13.0777941258521	-17.50415039382391	-20.6750422554539	-45.65757882945468	-59.63079754669907	-39.93344822352026	-23.05007354756746	-18.41114504643122	-14.02554712955835	-5.590619556947445	-12.33234453418029	-35.22907328825469	-15.73882708763244	-20.34715329303816	-37.1928867060389	-44.56832227280442	-27.25123463591842	-16.72727101204635	-13.00579445781877	-11.04334271631443	-10.20497248591383	-10.97281670739464	-9.89010068243951	-4.142162415161195	71.47651319375959	80.84238496794633	91.31969430411115	100.706508778412	101.5048372068443	88.27278570103054	88.75188158213312	86.2009618083642	68.59248572716398	52.9749801690607	56.56082767891658	73.24632026514293	79.96893621764997	49.07944035509075	46.48688728876672	53.82280524842473	42.94116270854495	42.69029899853049	32.79115706114281	40.71051179052363	35.95482645847461	46.081233828112	59.88857007376319	61.46806078323345	56.80043878861785	59.1461949247506	64.56732124786274	68.16057309170979	65.43050047813415	55.90691847957628	13.02441352061902	-37.57950982406356	-36.21504982626311	-21.04172545017684	1.706229826933239	5.818753921646845	2.648658975773884	-15.4810159011822	-27.33211027260316	-18.67101424222707	-7.465768461215163	-3.89487812728359	2.848067773881667	3.314516358375911	-2.882534761996538	-2.674480348631846	-2.019836539650896	-37.82063133359328	-36.65173609663898	-0.2951478653409367	5.680387394432231	-5.508496294681009	-16.18517063517065	-15.99997932718603	-9.896918640422527	-1.665512699251821	-1.052316601888364	-6.913510773532764	0.1616684036111167	7.006960951965112	14.44015583232203	3.553293127164636	-7.124462693459847	-2.452330191042066	12.71294850715189	5.917130797057197	2.207275074271479	-3.463372884056	-28.20786303355077	-71.4972975450784	-56.60529883752012	-45.75763852067482	-37.13802886380755	-40.7557597155408	-27.55465619735187	22.31787871684507	18.22033042649679	17.75249507757113	15.52744171757377	12.12877024434363	-1.680551928006949	7.767027356275264	20.98150162730641	20.93643031494327	13.3016963284268	-15.1986238322089	-61.96236079221378	-58.85889281465781	-44.30330421333551	-40.92274568151601	-56.89697736337504	-110.1344258309731	-97.317397002703	-92.33810664219898	-77.86979083999867	-64.34568270048449	-120.8524021312211	-96.07325150242679	30.47234020977641	31.27606068854035	31.47381003462152	19.98959471986058	18.06331973013235	-35.86471408090091	-90.67824709964491	-86.65240726657343	-87.82848317828353	-107.2785662074926	-102.8274354930191	-100.9566076505752	4.349112907961867	36.65995593903796	38.64606218296097
-5.771782912332505	-6.410539474628941	-6.375234908202984	-5.674846897716904	-6.143556290835143	-5.054926075020113	-5.434360389239828	-7.311119341289668	-6.554274815655141	-6.267059784708131	-6.902934032582728	-5.82103535670872	-5.30267539540467	-5.607166499559888	-4.064648708187306	-4.478789296896167	-4.367483009869339	-4.499883383296712	-5.355025560210564	-5.353910152775242	-6.253665847987357	-12.32575554281225	-7.720694302382746	-7.061996558517897	-5.046432668044574	-9.605562476736132	-13.86897601541242	-38.40049206410996	-51.94710357024478	-32.23087947164841	-15.85784800458615	-8.043076081276439	-9.322629449464763	1.74432537441119	-5.972117515749204	-28.52264840210591	-8.009858742948992	-9.052371773829478	-20.26030553398375	-33.00005027653408	-15.16729300225782	-4.739222821736348	-3.090102853630867	-0.01669146645798492	-0.5796281315273006	-1.549351980848641	-1.100209262656819	4.15404868676157	63.07084740383475	87.39887374037939	96.98814124809346	108.3108099950719	107.5893785603689	94.7895532854029	97.57483997194819	96.14611936552413	79.24009826816396	61.88692227286923	61.19221551387578	77.15700812009896	88.58635022796945	55.90118447714958	58.67542712014351	60.84105142147226	49.49789378328916	51.66140220122703	42.87858102646719	48.96629139434387	45.57513305212483	55.78319229082079	72.14983313291337	72.96451062960587	66.61644051866051	67.77040464090517	74.7403220783042	74.07717358251693	72.53776294865979	62.50067324447141	21.22624739492873	-27.84593606286566	-27.41453526821635	-10.88572680375692	12.46296007955294	14.52360121506186	12.24177279415869	-2.059868481221827	-18.50204688917233	-6.361942720137293	4.919919896946908	5.052198852037108	11.27653383339126	8.988143933450743	5.697288504611791	5.828761056838815	3.749105225097082	-29.23811061890039	-37.90933983410216	2.148433850996028	13.33369165239563	0.7698516172469709	-8.850889748051998	-9.225966587455005	-5.075067934291368	5.014043290979245	5.623832252991448	0.9503282503097381	8.98972780298142	15.72569224828882	24.88922845941264	15.14691353136342	4.091667041330425	4.96363663081965	20.21063241486675	16.84053924000995	10.31397208107423	4.480260345316282	-20.57312722762411	-65.79463848220225	-49.99428499472508	-39.01575784406587	-29.03155746277383	-35.51295287839841	-23.25885902861417	28.40091738747356	24.76504515735279	24.97234488411235	20.30718187961536	17.56084628354409	4.519596083640977	13.67209797614183	28.28474813863765	28.45063136610672	21.56239889721046	-2.774946062175673	-53.89603006671889	-53.06035562242378	-35.68098460719513	-31.37120933217123	-48.24407612501041	-99.30192106776262	-92.26571884964733	-86.51512532096135	-67.60236604284292	-48.38717612926107	-103.322760282547	-100.8569826372398	35.15636281825893	36.48473210127524	37.17173680071745	27.65683197428457	24.755775337034	-27.95563428121437	-84.98813568703173	-79.12603355549811	-81.33999132794492	-100.4587963134101	-95.62329663775596	-92.61192740447456	22.54906212671146	42.01187838282515	45.0608943167655
-11.76614466329838	-11.14778184993791	-12.09888382467895	-10.98332229294367	-11.05745777871982	-11.71857741673915	-10.63273220440886	-11.42933607085861	-12.00075414849687	-10.80621743094611	-11.45609061450152	-11.57967503279046	-11.30989140648933	-12.00039582935269	-12.11959707664896	-10.62817511159091	-12.17174009979568	-11.92183918087238	-11.88632404441295	-12.24545391080344	-12.47097867225605	-15.66852208954646	-12.25647864230435	-9.897341468015249	-8.746246499129938	-12.8063028624673	-18.21003161326217	-44.0973865939662	-52.86584028600799	-36.4445875760575	-18.68578178391138	-11.76008626456741	-9.538153932943978	-2.308111685776453	-5.967500342382493	-31.11786273211267	-11.04010867043519	-13.08104295469527	-26.25980409151546	-38.260732522814	-18.90095023946207	-9.622301907110746	-7.545218515007164	-5.679550576811494	-5.296155536682932	-6.089802491505779	-4.474993612341279	1.339758663183602	59.24147323584657	83.21816824863279	95.66822573681193	107.5995706813372	106.8333327864852	94.48982393698725	94.98968484052077	95.56954264379766	77.07226480777797	60.48638855879415	58.28400038347283	76.20408779597588	85.85597180548908	54.19670817812792	52.82318387495988	57.18287797194563	45.11398235637347	49.18176381418419	40.37396356704592	45.16777317142592	39.90266551877943	52.92249542356876	70.82055303297622	73.12079099715194	66.91695716292185	68.02372551881385	73.49403508262148	74.18759793670657	73.1124468374646	62.62120412176793	23.79137838449329	-28.22701186620896	-29.75300527072952	-12.07506458493866	10.44099399456648	12.15340308626237	8.355950139884058	-4.948531832075645	-17.03378177371592	-10.64698865629694	7.493671336090372	6.811148405310874	9.028516535731953	7.175000075621654	3.396731070007775	3.460467529970174	4.003668578847126	-27.90345887854481	-36.67897819940709	0.5470352741778157	12.84312525205644	2.508037007514559	-6.964463176998322	-7.375238358298887	-2.700402356824412	5.991922682604809	7.915731191397796	1.048189403593923	8.231452962392751	15.31865179060399	26.05242061945263	15.34404234356461	1.955382367263525	3.766125924771714	22.58552326180256	16.96274906364302	9.916474156986325	5.874589849542218	-22.0506010468206	-65.66416214337357	-36.76270129619502	-34.99045064178237	-28.46242719008814	-33.06189965780304	-24.6037711308923	29.8151385870147	27.20168086403922	27.1672505370332	23.32912734493766	20.00766899429954	5.36069726712563	17.53539181362713	28.21579874984897	29.89378716241981	21.80969552316972	4.200232634845591	-51.08889629239315	-49.79968306520175	-33.4440492772722	-26.63865360577311	-45.35104413466895	-99.40192152888079	-90.27375826471709	-85.27538369644394	-63.94947955187239	-44.38615305313218	-99.75096109817521	-103.6715672698572	37.66633416283076	40.39895042801285	41.05884613385163	32.43246721736716	27.00811246745349	-26.08149631174521	-82.71115758149978	-76.14363013757024	-80.00742267006258	-93.45187398928537	-91.77267997487286	-89.40954448734999	16.35173405248622	46.86175402849395	50.8018808289703
-14.00394098836136	-13.78954834523332	-12.85665970323461	-13.7884589388756	-14.10232350858174	-13.16698744863131	-13.13245727453374	-12.58475135749202	-11.86636903435914	-12.40175478287219	-12.44450214995331	-12.19043641910934	-13.22753466283809	-12.27114412587683	-12.17073626825217	-12.03780044418306	-12.04626836277554	-13.87143793795129	-14.26023616505246	-12.58831154278911	-13.70200856628176	-16.41313652517773	-13.38723831243291	-13.46265697969987	-10.73332106714786	-14.28958910731853	-19.61276429916464	-44.24706854287741	-54.65463624324579	-37.22827815632753	-19.71888762431539	-12.42839411098226	-12.85234226854794	-4.757541186478747	-7.997686200970115	-30.20239080960982	-12.60039922830197	-14.54714964353349	-26.90203398249228	-39.75677580045452	-19.52887453507706	-12.23261622064144	-10.48891026517167	-8.890224620066284	-8.81495477724684	-8.689524718231979	-7.212010089415728	-4.363745547731952	51.70354850305499	76.60874880310411	90.79864259446975	101.7867871242773	99.91943820408494	89.36911447798924	89.35837278765352	93.37919806971563	74.0218445525469	55.35443986459474	51.44376489483155	70.49935718298596	80.53748217212608	50.08160224603789	49.06564280145342	50.98341897008811	39.04048114233332	43.35247918744271	34.54979741865256	40.72712099330214	36.10407905485854	51.53718574189018	68.79430647553944	70.78222165235105	64.70538018145325	62.30849971004874	66.28959903241055	68.0261789719477	66.04638688781917	57.97623511212259	19.87153164142514	-32.51737256385903	-33.01552809188001	-16.41564133012442	4.766860228143045	6.90736169522647	2.20772228695985	-10.35503677978697	-16.992758549144	-13.48364567766453	2.771955916208299	1.146041366926781	3.414124890548706	2.243234544307981	-3.479447553942549	-3.049684356292005	-2.598115426115839	-33.23701441976383	-41.52689495496788	-4.032186363095946	7.495602785691418	-0.7519828700356044	-10.67146666524603	-12.90316545633178	-9.432585287521121	-0.2946660565427237	0.6468060319487847	-3.931854080589858	1.945559219294339	8.298365505027718	20.79974261618052	10.04113302858933	-3.042599453402389	-2.26405500229788	13.98295969090375	11.00267707514924	2.309149400634851	-1.883333383264102	-29.89511840094178	-72.17948074176144	-42.19321663016482	-38.42071901156653	-34.37013737270391	-39.66854371521072	-34.11748301122431	19.93155750904779	20.89560307103679	19.62120182310208	13.74094706480052	12.40501150475806	-0.7491681017268519	10.9965619379963	22.12043314454239	22.81802088985272	16.24590696651485	4.82606526348772	-49.86963189195133	-54.76057808389703	-42.00482643255542	-36.17007855311839	-55.27855987769419	-108.4059684998292	-97.31902429527217	-95.03266597475296	-70.15250981470612	-55.62371635865216	-108.4416865904292	-114.2470888112472	20.79982022421201	29.81021892344587	30.41994705217628	24.54055925610895	17.95916118625148	-34.48179350028578	-92.13299685931987	-83.30875147748183	-88.31453855455473	-103.3298367201144	-99.06537441399408	-94.58102221922705	1.723579941340802	36.19829679429292	38.07833665923884
-24.2797507386265	-23.06955352276632	-24.39115567012166	-23.65022371986132	-23.44389497814893	-23.95804916730863	-22.87966446482773	-23.55642862238862	-24.41677103794518	-23.49197899188894	-24.02259348890772	-24.56879815632769	-23.91340304317916	-23.67041265182095	-24.02254369003726	-21.9471014802373	-24.74263683741595	-21.62766490261072	-23.14844837851501	-23.37985916146415	-23.7754076688065	-27.38704275712881	-23.95759443457956	-21.93382040259239	-21.56973859409175	-26.45807997342202	-32.41062939977654	-59.83936316887045	-65.57262487181109	-48.2910550378252	-32.20434917012609	-22.97574102930121	-22.81342533367813	-17.87292894301503	-20.54372941592718	-39.68154859763909	-22.01947560210009	-24.11372521384118	-34.04945881244043	-46.1873416281464	-29.19454273393495	-22.71857489151797	-21.08452015866818	-19.76612103275973	-19.87070680979075	-20.12212118103754	-18.42706511613041	-14.2658126387811	39.0461256398136	61.55041899994136	74.69293744035052	90.26690211705768	88.1261766935005	79.43452612802514	80.4274031681794	84.80883033637548	65.41202999381723	44.78342037080841	40.49706597988782	60.61440443115521	69.86201189722992	38.76990997319602	38.75912112237401	39.4908532482482	28.33704500661035	33.68805375090113	25.22931097721434	32.12161857127427	24.89131782586756	41.05522953380938	60.16786041353895	61.51070634133201	56.32594361349064	53.74294226335054	53.49018254182555	56.30840124904086	54.99638215380257	48.10526301758014	11.68969720323574	-43.05283769465502	-43.25491297943956	-23.89505547293348	-4.010329148644274	-2.301440879521564	-5.791237159446069	-19.10311442446053	-20.10478109022775	-17.28581857706202	-4.688743840157557	-5.129682128453368	-3.686861857441386	-3.650299863743527	-12.27643321721561	-11.84633163582416	-12.22635643393774	-42.49574107358418	-50.85161315179622	-15.4578097979002	-3.668429714842006	-10.71889692818115	-21.19186780633649	-20.78514513588267	-18.81081417573944	-13.17757686537264	-10.61149172782535	-15.97466200732313	-9.752407052609769	-0.5717482321045395	11.64637054909561	1.448255287610934	-13.65474582746573	-14.6821399453779	4.371542199736552	-1.686702920497936	-7.817373165462797	-10.50563013881241	-39.34629794120258	-78.52153512296577	-45.23264614041473	-44.10150830137705	-41.85699566512043	-49.1713104935883	-58.03597417832876	2.708203653296351	13.42857393506563	10.82771836770954	3.955503265297409	2.497062845291296	-10.83490471221401	1.665012051497783	13.05641484942649	13.33253060834267	6.12651877646816	-0.09089725493284107	-51.52291434121697	-60.98976832513939	-48.67350924631093	-43.24486145833127	-64.41620587880936	-115.4765203222524	-106.8193533468441	-104.5121177988719	-76.09941051176628	-69.18045608255636	-121.9727660278734	-122.9501521950959	5.85130058779248	20.39628891575474	19.96387237689878	17.70190202631578	9.052668079964675	-43.79057744434304	-105.1721261732434	-93.86756707307227	-100.5227368392278	-112.1989806252269	-106.25759250755	-103.2220843227462	-9.655140467824992	30.1316685435407	32.27872419431161
-14.85534300546032	-15.49177519187281	-14.0917021927305	-15.31216934571088	-15.44406335203415	-14.68901971872955	-15.07194136278773	-14.40174852787467	-13.74882371362494	-14.3366858644879	-13.83958995419663	-14.04650825193087	-15.08983826181001	-13.93894664369566	-12.82340736695844	-13.25795756151506	-14.79714873357309	-14.93290748544952	-15.53932882532862	-13.68045937689118	-17.26815906732935	-19.68093116400714	-16.2437156719275	-16.27834924300874	-13.5830170757248	-17.31305586307725	-25.44653153443146	-50.38435830266286	-53.09504197963447	-36.5923618106696	-21.69796376241622	-14.42552255926207	-14.06678529361244	-8.884138502280877	-13.0663659106131	-30.77081140035293	-14.76535422930218	-16.16722485197519	-25.64773885301629	-36.41360512290777	-19.77891861689741	-14.01622345089393	-12.50783807474773	-11.35999524665399	-11.12464841485242	-11.84384314328761	-10.58873023965659	-7.685857605723143	47.93407976216571	67.45089595597727	83.44768269738739	97.40824064045532	93.22170186619468	87.86781171978623	87.31968156155136	92.08011509176889	74.20084478586666	53.03205378821946	46.12758940502755	66.34279202762103	78.72658517592834	48.24935949153183	47.19138797573747	48.10423647569597	35.26855868804527	41.69972103573626	35.28094373637096	39.93200251478861	32.31652589360496	49.90864730914322	68.77986977248079	72.13672044372885	65.49697888062845	61.94488011949886	58.01305469729337	60.86920185936042	60.03468279024926	56.24171015858552	17.3893918824656	-36.6860177478817	-37.23574405412703	-17.6990967149811	1.873693676112183	4.430356251732377	-1.357268859784583	-12.06405044532077	-13.08791854089468	-14.8903969999637	-1.681222183793764	-1.914887716754791	-1.602696481657404	1.533949251839999	-7.275463603201203	-7.579235794330231	-7.558037536448154	-39.54326374331559	-48.95155065206995	-12.13832258925555	2.670407288437019	-8.073461462804474	-11.98783083578617	-14.56981259314767	-13.60397591675621	-6.813534324521356	-4.701408030298396	-10.39382337316958	-3.231888826311661	4.780036563810469	19.36686534131542	8.278511631160541	-3.884191337585207	-5.477860958991329	8.080402537913074	6.606170762926681	-0.6054614822344746	-6.753513435084528	-33.72459167475151	-64.62149308507117	-38.76082621388968	-39.28139663554357	-36.78278706760024	-46.67839700776494	-57.52893684453456	5.733469378307746	20.37939608483804	16.95250059213582	8.950175223766465	8.985045694406736	-7.690269291368907	7.340985921482684	17.4824055383055	15.70638043523826	10.58083074275719	5.440080698442998	-41.76140399834348	-50.80836810100433	-45.67425779196806	-37.50733718325479	-63.16371572117772	-112.9361032644957	-103.6007671502515	-98.56113718626254	-70.0756252811714	-67.90088836890631	-118.9704784552302	-112.9105496116203	9.10957533913583	22.04877544083274	22.81470608806367	22.14518504917967	12.72700551679037	-41.33283218976736	-98.59939193847451	-85.46237979352821	-97.46926596530348	-107.5775389705919	-103.5592469469035	-98.61442920704067	-20.51861016411203	32.93152685375094	34.10309088325789
-13.63073674300024	-13.22893193856777	-14.03581409648604	-12.97585997110591	-13.03804863938893	-14.16928918389812	-12.75147241397475	-13.73621607108796	-13.37940174193471	-12.40045367459161	-12.96772060806075	-13.06489045584556	-11.58224461574418	-12.66885629417995	-11.72438912081504	-10.80080801801604	-13.4434343048235	-10.82948951050568	-12.72871478597161	-12.43223178696632	-13.74751852498583	-17.2685073132201	-13.67258779141422	-12.42581762403428	-11.94066884514562	-14.30379133646445	-23.99028743622053	-49.46106244368476	-47.0902279396939	-32.803673298436	-15.98504735334963	-8.2373649966827	-8.445869628847625	-3.510895030593247	-7.943120203611585	-24.41834576600169	-11.653867888634	-11.51353577547865	-20.94785509294736	-33.0303561080672	-16.57481524816566	-10.57630015717346	-7.279057681269315	-7.301562399226022	-7.156168353663261	-6.866900522406603	-7.77411373750386	-4.811869663080856	53.88476974152901	67.2221364899451	83.14350341492211	99.8591245389438	96.27945367837864	91.2013613520735	90.88530411753526	97.375174836594	79.02173144542868	57.04356341346596	49.76115777210254	68.02561830857948	80.83673012393785	51.58949659302763	50.63397517498248	48.13643634618019	35.9904888564152	44.72448482682485	39.33619409514145	44.08989565729249	37.17674506855946	55.71603563222675	76.14851451082686	78.92668959439996	72.68694679019585	69.73687063135998	73.42841315862418	66.31403785205147	65.85587793597929	63.18807480021634	25.68587949551012	-30.02179637972652	-31.96818140262375	-11.46143528323312	6.555493302291779	10.44542179011104	3.704394282114748	-1.997661898148039	-6.054992411259008	-4.901673359870884	4.436874761161306	4.357262114708746	5.378108375736602	7.05486622797838	-2.099612691936073	-1.306440919444739	-2.121420834075607	-33.69722149082151	-40.73169370689055	-6.62796511643694	6.851793666441097	-5.286150327064632	-3.325366487505889	-5.396649905868586	-6.396538874162303	0.03830858746451327	1.37942162681918	-5.222736432919348	0.8530039481722724	8.675710661813369	24.62402940159795	14.92958729385821	0.2417794107978466	-3.127409591524881	17.29830732797134	9.191035889866157	1.810851281125622	-0.4276608988471651	-26.74892300114819	-55.90489128037144	-31.01370867434767	-21.85442551453676	-22.46645799398775	-42.72953686997059	-50.64849982449257	3.476801206018592	21.4997562529887	22.94324846179991	13.87707753742762	13.10663961241802	-0.6633838237498111	13.68560040534051	23.48647466691853	20.60836769759064	14.98287539276433	12.77157082727291	-32.83333070235425	-46.58705268443839	-38.51858636838288	-30.24508477085985	-57.33687265905011	-105.5727417030725	-97.35505055380997	-95.28978621601476	-62.51412932452502	-71.03579707384564	-114.4391347216241	-106.256956077455	5.937446957361459	23.67573205323157	24.18882355860993	24.36171570926396	18.90371234419054	-36.51790643368537	-96.80288130676618	-78.69272498935112	-90.96937109678841	-89.68600084568924	-89.45179134845091	-88.88808772817326	-12.26946569667777	37.89028437676257	39.75913644133414
-17.9352982819227	-17.63868772507647	-18.32800727528749	-17.3823540335452	-16.7422166693776	-17.61781138332739	-17.13524747237491	-17.73924021821003	-18.1520177142419	-16.74194320836064	-18.0599424557648	-18.23117590709422	-17.18007804815888	-18.60943170205889	-17.76318354365347	-16.17370443481018	-20.24469962246353	-17.85982689495152	-17.90728902562919	-17.75165162788029	-19.42563177645312	-23.66938821352058	-20.33902955512182	-19.37629290823089	-20.19008437242475	-21.44831534437636	-33.32407061684732	-56.96206945996292	-49.92984781268267	-37.84999042570654	-23.44615666900042	-14.56833055364157	-15.30778245520376	-9.918492401316932	-14.19672842242156	-29.05793273608546	-17.29852674295082	-17.33004192370407	-25.1181110382952	-37.35340566788951	-22.83788614238557	-18.20896776266926	-17.27200661022513	-15.95698260913309	-16.52931673281768	-15.74491514348308	-15.47283633412746	-12.63729470972316	42.64185466430961	58.32429328537314	74.3516616590075	93.85754672889013	86.78798333809802	84.53651628506557	85.29764232537163	90.34118877426005	73.61365091044429	49.6598116726137	37.47049484467587	55.9916357872272	71.68620931238738	44.50219400748773	43.39917339293304	37.02887646556817	28.40030385830912	36.51751688217556	31.94406152909662	37.77869188518414	31.76007308030594	53.77876160120024	73.16864374125109	74.55171197144486	67.17100623377537	66.00190780014495	62.35248532286869	58.12363643052807	59.30184489074563	56.42861077623401	19.73705177787731	-36.9525114110977	-39.52123021908194	-16.35378072738291	1.320921688235359	4.787310520830417	-2.833815706469366	-11.27914772991716	-13.93985421483592	-13.16434598803001	-4.092200619935738	-3.918424826243395	-3.280363652588974	-2.59886107478701	-9.909779344039109	-8.705630158153738	-9.765504623290127	-39.13696680362287	-47.31453187438221	-12.64443203530502	-0.5576487023815986	-14.85901564252545	-11.1427671842645	-13.02021102478847	-13.57883234297746	-10.33239054535423	-7.145520235117758	-12.50586559734145	-6.636202434145389	1.303549599445503	15.28045994021191	8.59135342725817	-6.332695923418783	-12.2346750464245	5.99926444276376	1.28445845682981	-7.281510809692577	-9.096581757495628	-37.42897225115052	-58.90421885661753	-34.79787101932618	-35.77335437885721	-39.06000868533531	-49.57257751165998	-69.06108387861194	-26.72298434824336	9.129230453061993	12.69432622328557	4.292181286511465	5.36517506077476	-8.723692842221254	6.688587931054627	15.36354803453058	11.75757316658866	7.505389885870613	5.561293792188366	-34.82471334296609	-49.68852551725274	-44.64370500894105	-37.47150712274258	-65.38481422665052	-112.3093761496692	-105.5098489550913	-102.7810136650605	-72.07855228482391	-81.75752273906706	-123.5869459846233	-109.4454592654297	15.51736988422833	16.94148748578837	17.67599637993906	17.75357462739484	9.925731231846953	-44.99268172741437	-108.5584818735036	-88.43057825794114	-105.0254324399333	-110.7540262508124	-105.5386657373633	-95.65788881340706	-33.15143663558491	30.73926533159528	33.82247975193758
-11.88272632458613	-12.36119766127385	-12.96802345289557	-13.02150143827456	-12.40776457616858	-13.62086910001261	-12.81368074056947	-13.75615265501916	-14.00363774286625	-12.59102823302458	-12.68794779481007	-12.77746267808648	-11.5438284975835	-12.54444353694912	-12.54542038674881	-10.67084117136671	-14.34771748704055	-11.97542226552617	-10.9560350189103	-9.31018601046032	-11.92045655791877	-16.59685780406213	-11.63077700852056	-11.90161707228384	-10.69727141976229	-12.75771150741851	-26.32592664403199	-51.03487670936659	-41.78468923999313	-30.93117542826563	-17.20593087082338	-9.269818523704416	-11.48194672707127	-4.188966137863673	-8.433277125987566	-19.96737951990863	-10.38424862855588	-10.1835619342231	-12.20285087493193	-27.91550899918291	-13.43355641215162	-10.16390084616047	-9.020700031696663	-8.665408902763694	-9.044614904551075	-7.7957596124172	-7.370659527668344	-5.717994484884862	45.43625087610702	62.22254644102281	81.07272935204304	99.38856695729419	92.11518670342076	90.48705628693037	90.43867634153153	98.70004655974338	83.38295572018384	57.58487638628426	42.10659404360696	64.10461468579217	79.09250243079754	53.42207895747751	49.75332781214688	44.04957512997318	32.4271948807182	42.48710994069943	39.90498760173865	46.9565000533899	42.22897412757658	62.38501659431446	83.79142025321352	84.02151380212902	76.82076091163958	75.42272084479262	66.35447832681132	64.56189810122353	66.95537454133728	65.66154341519689	29.94460390671337	-28.6491336126052	-32.12979175767629	-9.331630441259904	6.746909154102028	9.893547895743325	3.361812341484622	-3.735141259806028	-7.714679110172668	-9.248559391809238	2.07416908889769	2.34968352439779	4.379978450205186	5.463028685776152	-3.097743813192437	-2.540924231139883	-2.549708068087611	-34.06793030402789	-40.87858056095347	-9.033264218562877	7.86590537024064	-6.205453350636873	-3.70760387627746	-7.478115923457679	-7.199685169068019	-3.292252929197218	-2.131819170656598	-7.542201676399415	-2.19935192714037	6.706170863050858	20.09885181319883	15.84342901041032	-0.3253061390079068	-6.71321515671049	13.28852678296606	5.461203766791783	-1.058598501118695	-1.746496018785678	-29.23369716253072	-45.77138721460428	-24.20022028639947	-27.82817251357814	-30.33461118400673	-43.16386538877422	-63.89609116014682	-38.7068036618961	1.153703961370837	14.87258524191087	10.8265920987108	11.80621216941641	-3.585664615327715	13.1337256888968	19.80685672305458	15.97109981456518	13.1609462731079	14.41206891840679	-19.25186785140806	-40.91761043613382	-36.32061394585055	-30.01792297862607	-56.52672519758944	-104.4250994094102	-99.52942490780221	-97.64509923579971	-65.10166067928844	-77.61252177863413	-115.8051507796985	-83.15605922771698	21.56150746409379	22.24961840750859	21.88475934337565	21.73410741355644	12.94439826022474	-43.69056623999921	-106.383599225245	-85.71625593284566	-99.82814622312253	-105.8111932915215	-100.2974299276269	-90.93338894063581	-23.13984042314591	37.9836867100133	39.16576234536259
-7.458259539026933	-7.492620366243543	-7.615165067295422	-7.227244968980379	-6.309484754490725	-7.295489135229424	-6.79048235158384	-6.99685038055884	-8.061980213642009	-7.232113447940989	-6.627935720974889	-7.50293012993076	-6.37985131397344	-6.442467575856377	-6.291262075393895	-4.161229715436548	-6.130175562501783	-4.426200859495147	-4.669131661371466	-3.458642852174236	-6.088012585094354	-9.632786390467707	-5.886785393489532	-4.135161799092963	-4.792492842007491	-9.255453985252402	-22.98854118314775	-43.84704826694839	-33.74902127428282	-22.40147349678701	-10.16169217949856	-4.004394143625426	-4.823190284729506	1.955055337348483	-1.468156495485779	-10.95344319961264	-4.245216393827512	-3.279942378960847	-3.169490480926015	-15.17799134062108	-7.260422918350791	-2.903121228575166	-1.755577126299571	-1.255662866483206	-1.39078123236132	-0.2145043794940875	-0.3291988152154204	0.3344109952187466	42.40399732436936	65.51606154439332	84.59599328970127	104.3177572095802	97.97598152291491	96.31531577906706	95.6751501880707	104.9518944640065	92.6303848618346	64.98160896919657	49.16000362870275	66.32764795722379	84.93418040921259	59.82928777718521	56.34494645406829	48.94899032833095	37.0825559359014	49.31257806610893	46.8647464426807	52.34470207425339	53.83463452964943	69.13963288762159	91.67973313832064	92.130726788251	84.74236785474797	82.38440074755795	72.16680011600121	69.41481013782779	71.028297120611	70.73750370260824	36.67320860727681	-21.88770367137064	-26.09752219334954	-2.864743857681844	13.46169262727628	16.56339595737921	10.92347976119825	2.936223976642637	0.03406356930436516	0.4342292764939231	9.468687632622846	8.908991772130392	10.24164381923983	9.745257860179805	2.206382580598998	3.069743772628271	1.816466822923488	-28.31029685140009	-36.64006073231404	-2.390898845506101	10.16500311540196	-2.288523620862492	1.584896714619305	-1.365549270586342	-0.6104574152006563	2.150717473239965	6.055106806847192	-0.4540641170269453	4.925294139600553	13.73957314745907	27.626547448354	24.45702622009333	9.872991441410974	0.2176888459960793	19.78491099375083	9.374161462454921	4.469480235580235	3.237525390593376	-23.99486736552342	-32.16625604778262	-17.71949731091524	-18.65464616302353	-25.15617037016163	-40.77746479410661	-60.46731823697411	-36.79171802895769	-0.4741301187599163	16.01286363046151	15.63472867680044	16.61501025082045	0.7055571217801742	21.97582767517571	26.05235691949466	20.70788550136226	20.05789346894856	19.52264554802268	-3.090921522958311	-33.54015939287537	-30.67922019395176	-25.32095542074426	-52.85039410486156	-98.65300098134666	-94.0046103364478	-92.07299167076319	-61.87879056641957	-81.77957225008247	-115.965395075663	-68.78739153911917	15.73651548360361	26.48844536912841	27.42333078474937	27.20081187160508	17.79845510939033	-38.33472500190224	-100.5069199187825	-83.7189216212044	-95.70158836049511	-99.5740105219795	-95.2438337134473	-85.06579923738261	-47.29235754282956	43.66039218629112	46.08311699225086
-8.340913673298392	-9.267902255388869	-8.559594925952585	-9.396857840381539	-8.994865686336638	-8.516104863883044	-9.147280919095621	-8.321290361942566	-8.227793001274577	-8.89553313932938	-8.184383122785704	-8.059828922117141	-7.995815567555603	-7.05881652081959	-7.961511015177393	-8.292773382578652	-9.145654887594873	-8.710522876944232	-8.531755513707552	-7.648830953221896	-10.27663504090195	-13.45157285490021	-9.905383816932456	-9.46768254198718	-8.195553522498699	-10.81340363400868	-24.18388945813438	-44.75639229347053	-32.93151306855137	-21.59195687063004	-11.06317477356055	-5.446508701088774	-6.590092930532599	-0.5816318196238868	-4.762100610256965	-9.719112095555104	-5.720771616298961	-5.984749252841937	-6.800120458152932	-13.8081587194243	-9.678483559490878	-6.344207641072813	-7.250033144479708	-6.143703041930685	-4.610548679141054	-5.406584367217683	-3.708977747707735	-2.958225999866258	45.72428001339408	61.72349571893065	84.95316365617619	102.2667237661334	95.55210855327728	93.78237260916173	92.66854973845996	102.9444557698519	92.06898081101168	62.73820493877149	45.79178523248524	63.89594317421104	81.82821296838044	59.26641411272676	52.90297111398718	44.22615906588113	34.51859518640128	45.51646055343795	43.54160972870822	49.89988632406799	51.41102060869038	69.12961590407853	89.76702698871195	93.67313275086512	85.7551190262586	82.73225528227941	72.21692856775901	67.82369317783417	69.90234531935813	70.51771006105483	34.61053256474278	-23.42275909889656	-24.78334731726044	-5.067071446232916	10.99180172328266	14.90317200101478	9.222646934739856	2.71436323920895	-1.229683932936865	-2.711023791153806	7.366905203589951	6.554564369429002	8.3636181325558	8.846568023381309	0.746197334913731	1.346579655723716	2.017466868257145	-32.71794787555227	-33.67551888055463	-4.642893806075648	11.02400681453494	-4.090837522650006	-0.1472612603649708	-2.836504647667866	-3.749654992614964	-1.650212244223553	1.156940534524878	-3.963032182546783	1.178793610370207	10.1041120642721	23.80671003568808	23.13842970584065	8.626036018239475	-0.2225699581021274	17.72891840220461	7.822796119206473	3.603453431978437	3.652515471284559	-22.10226140869604	-29.20712383323513	-16.35142766684325	-18.05939657547138	-28.57777094233037	-43.50681532859667	-61.45437942747922	-44.38268920837549	-9.354997157603506	14.98529079719189	15.28222570242137	16.11371708383793	6.180365354442003	23.53046964617104	24.65892007913595	20.57925324302886	17.85270555223818	19.1767147786847	0.8589117138405129	-33.63223586913801	-31.8605886337261	-26.66345040270829	-54.22232513423775	-99.30277859050167	-95.38212689282749	-99.47630838656544	-62.85493688684694	-84.75470626266149	-116.8475364310784	-75.50654821987168	-1.660445732463245	22.52352969056598	26.72106208202679	26.94878702144952	15.71756354030236	-43.38907805525822	-101.3080066009091	-85.52475706799062	-94.57500651770276	-98.07184471668444	-92.16885181603971	-84.21450060486089	-53.23291332597499	39.64387161399451	41.9283980276803
-13.14480071509471	-11.68266940855768	-12.42184987619608	-10.65898989173804	-11.27963813708238	-11.2404336217367	-10.19958994698946	-10.85628498741849	-10.86856437888889	-10.23248843412438	-11.99671256158224	-11.43476518129053	-11.13054014350117	-12.19963297293297	-11.30752971042105	-10.81963015777344	-11.87426382144066	-10.96111301470553	-10.28191599322612	-10.64871522886768	-10.94856388809363	-15.66683298989003	-12.75815842816171	-10.43058813175977	-11.57434961076127	-11.57915945144585	-27.46532191646098	-46.62860498904003	-33.64051412614648	-22.20897216161595	-12.29186831470915	-7.073618609526214	-9.456139184383765	-3.396639560700756	-8.627068658877867	-9.451910985194722	-9.142323865022945	-9.112483095343592	-8.729960667730417	-12.08770777241908	-11.07506887015452	-8.130941608104777	-8.844220011966698	-7.701963906601392	-7.605444673378337	-7.721179819194283	-5.140147539516754	-5.390335302647934	40.86168350772201	57.8532799042721	79.81720591130676	97.82785988814454	90.90051386213975	89.03281828804336	89.24567295108214	100.2562614382656	91.71481448078038	62.13145885166632	43.35591304146895	64.47128350049778	79.49538864383298	58.12295632520421	48.87821651282238	38.19382742427058	28.66479496228754	40.43364186013257	39.47571399199943	45.83865699474445	50.74942316794906	68.03950750972159	88.03862892757924	92.91476973538234	87.98504186036305	84.05798772026024	72.21142955611104	67.65590557929198	68.66212133431908	68.38666660499328	32.72564293122069	-25.1377718800106	-24.55992235130928	-6.079548762544846	9.925282359380745	11.01064039672723	7.592582721688288	3.289476427701572	-2.589488864661234	-4.613593571904289	3.754951800487788	3.998996012480362	5.030322155290634	4.958492484877453	-2.188182929397399	-1.070708059314072	0.1742993428060942	-35.30848905001436	-36.58664907110153	-6.641212241669962	6.842565513721468	-6.637783947819827	-1.805228222423622	-2.76968408190325	-3.532979130396924	-1.434294826174423	-4.073218261691096	-7.27089883497068	-2.94884770851472	8.071981660143877	20.20121452762996	21.12719327553282	9.807434852525134	-1.091893520516493	14.27164761504008	5.459307763322144	1.923882186057597	2.308356124567823	-19.69369624744819	-35.02093162049243	-17.58903626661028	-20.11787963400904	-31.40926674337203	-49.74191739395647	-67.5553849454905	-46.73064561664889	1.973226595764189	12.02463830960822	12.18976903283829	13.9300020483419	3.24178414955071	21.45768185169631	22.67695600656597	15.85123568470217	14.94409323315892	16.05982862149041	-1.102707396726501	-35.5029023064109	-37.29658416402653	-33.56811584854262	-60.28160706197813	-106.7525177106036	-105.8387184960533	-104.3962426922328	-70.80484747593786	-96.63492136058575	-120.5581795846207	-73.12871106120517	-14.71078367991896	18.44240459297656	24.45411154031466	24.48305761404207	14.04638708836619	-43.9724156974258	-102.2888535040401	-87.32047107378594	-97.79037112466045	-100.7120545585404	-97.01317395558993	-90.54829088863578	-64.92507064622302	31.47354466908625	33.02400165986764
-21.93399023635058	-22.56410812050083	-21.89607127741758	-20.85998088146388	-21.75575017942962	-21.67235343254699	-21.08081894010615	-22.07547586139226	-21.46228869509564	-21.49194979445121	-22.46161948423791	-21.23112540671956	-21.303098560045	-21.92039567363726	-20.90627282838432	-21.58910915815528	-22.72458748980983	-21.57871752023115	-19.19255938886347	-20.90079650249504	-22.13402600224569	-26.67195540269392	-20.9559019331112	-18.96157863975381	-21.47642199430916	-22.54307642116112	-42.76469087411398	-55.57772527839664	-41.15974833984441	-31.76962648557836	-20.58048343904077	-16.26674576735505	-17.21912236377509	-13.30470346323759	-17.75704684659016	-18.49584554560945	-18.21246327711539	-18.7872603081773	-18.6119148907693	-20.49198090252712	-20.46245509330022	-17.41219743120367	-17.90625358431287	-17.06320872618922	-17.0922936328751	-17.69751150649594	-14.13217059634152	-16.07359392651586	21.70662141104748	46.13532214497467	68.88585799833339	86.96421189677622	80.15701343506625	76.28587319378451	76.13331711642198	87.19927214002405	81.61646407016252	50.36809595425024	34.02694382795971	50.59695611670122	69.57742669146546	48.80456393433204	37.38483853406227	25.11313387632701	18.19055330671085	31.52763037024528	28.92070666719765	35.62545577942132	40.7035168128461	60.48754221863177	78.40300527629617	86.09188610891309	81.18154881486898	77.6317579697309	64.80331545624307	57.8422333962849	58.26428497748816	59.99295168282957	24.34395798543709	-33.19806060863827	-33.25908028686504	-17.59018745088041	-2.375421781057412	-0.01434275958274611	-2.286305240840605	-5.790594290306544	-10.43013619135814	-10.86547337139959	-4.910816045462099	-4.46828259461293	-3.824327465599197	-4.249427177211402	-11.17255528148897	-10.15032761560934	-10.9016592144585	-41.25061518161577	-42.08466321103194	-8.879294795937383	-1.185447322352644	-15.9482653397301	-9.420569048474206	-6.860611058226382	-11.78032613577086	-10.38303171153845	-11.01621811452065	-16.12711591960063	-10.99843339086603	-0.6616818076202691	12.00227437669027	15.90504006752531	6.93493944358822	-3.751495672180553	7.420878222580797	0.3940990580916832	-2.631272937121025	-4.456466581448495	-18.85310489111936	-36.03504172697288	-22.46001825335885	-24.42358720004393	-34.68771745525958	-56.58253270213162	-75.01239338164086	-56.90135111521506	-7.459178397107834	6.373633945744132	6.305496494313246	6.389242636718009	-5.171452509603071	14.18724693819428	16.01823135376145	7.833377169561885	6.413244300145692	7.597521499613009	-5.924603706409215	-40.70235302009691	-44.1114455455871	-40.25617903495489	-67.09346610444794	-113.8000979685328	-116.4881848248057	-107.5735358344901	-84.37861027683	-105.8442631747834	-124.8269293000744	-80.78847130641211	-29.83971329033035	13.32840059729327	16.09422216935154	17.16224415905496	6.847206361951862	-50.15596446333743	-107.8850401066532	-95.17457234747175	-105.5291671810535	-106.1159199538526	-106.7739995412723	-99.36394829602462	-87.9938254717036	2.304005192345429	25.57548524503146
-21.4864856152682	-20.50574674743217	-21.98195022016352	-20.19147893203716	-21.02342129667955	-20.9013209044089	-19.21942786240652	-20.52970250138597	-20.14364720225461	-18.88466994554354	-19.82416308584147	-19.27387380545419	-19.37657400228569	-19.53671428307901	-18.86100687184588	-18.98089435251203	-19.3546934397937	-18.44874375792928	-17.66960111432609	-19.019885033006	-20.03460373794546	-22.71715342590265	-20.90104901164791	-18.19038548599164	-21.08000560197856	-22.10795638344251	-46.19296439612754	-52.42750469067132	-35.3758849029868	-28.53017954524831	-22.91479830368244	-17.23776238586572	-16.19060199184178	-13.96703032197936	-16.92554700912795	-17.09319436491653	-15.45781562436269	-15.592572266819	-15.72993649094335	-15.85214709559545	-17.85461164100801	-14.49193544641769	-15.01529869554963	-15.21459119099654	-13.96117553131136	-13.79909365862123	-12.40641276474584	-13.14832686412878	20.73678324730851	51.81121215964917	75.16306064155992	90.14323779358399	84.80416171779042	79.36120527145147	80.5757581761067	92.58139279185336	84.8243758068401	54.87549426790291	39.36144865300837	53.66624940067689	71.56007522091186	49.84543496094375	37.73426672406646	27.09525014032334	18.76632319565144	31.70756884848457	30.24299482012579	37.20190756303067	44.12288300797091	64.39687522305918	80.48133867616646	89.28014606113673	85.32285780213851	81.9189825661776	70.27086665265755	60.28969161806367	61.16353891510643	62.04414316931152	26.34478624442673	-31.65532356623332	-29.74470866672306	-15.7463821204802	-1.384137359027108	-1.376429645180352	-2.158181997937064	-3.889953719102181	-9.411015769140505	-9.007233207773254	-2.21713940712435	-1.954461576125638	-0.8308112829652146	-1.752560158793358	-9.139528932983112	-6.278068640085451	-12.50906013803976	-40.52476329437827	-37.47123182431243	-10.05747302348655	-0.2238087163862161	-15.11126151495228	-5.568347802322435	-2.784002094746356	-5.512813355573655	-5.978034551908365	-9.40874976021702	-12.71458112767111	-8.072215347801603	0.9118603179777551	13.32808057461629	16.36476471039589	8.421082015475037	-2.809733547187022	6.040915489545668	2.141153118842666	-0.2777407812425423	-1.962701570725784	-12.75613228514459	-33.79300080162568	-17.22168463468242	-20.27015378664015	-35.44513491570648	-57.91416729301977	-75.91716285864067	-57.72091589004838	-1.489569171516266	6.244720357089605	6.910103316745719	7.320605311065961	-8.367317937704954	16.13587243507962	17.83240545966493	9.879625681361929	8.423533602869639	9.722403081488366	0.1212483738039936	-37.93681040733451	-42.76975112404213	-40.53060673722601	-70.73688032848229	-118.6343333655351	-119.1229893091916	-116.6763622229561	-92.29290608900237	-111.3450910009292	-122.9882452754229	-88.16303901063388	-37.53803450737686	18.42175380017774	17.85268982307034	19.01702708522717	11.7380657083838	-39.55968305901633	-100.6328813211387	-92.2071654208616	-100.9824862174615	-105.6461538178453	-109.3044989921302	-100.2033106028939	-98.0268033234599	9.582886690245019	24.31972095968894
-13.82964429183655	-14.90014214405826	-14.32623893090152	-13.28953698426059	-13.60696879181746	-14.32531234330919	-13.00495557122653	-14.22007698245708	-13.86526601458928	-13.04009857605837	-14.31025524501316	-12.42670005242681	-11.96806551582086	-12.59915213274238	-11.54314588119401	-11.44342425693922	-12.04881366861973	-11.91155167001474	-10.38668121712777	-11.81199809807264	-13.31161360439385	-14.35508100808438	-12.10397272041013	-11.10889434139593	-13.23948242199244	-16.42530234715092	-39.30001664273085	-44.71565440220446	-22.46716274583743	-17.06649066217531	-14.89546877057843	-9.759195249752366	-5.30271382654248	-9.907036262385411	-11.44134962820829	-11.57856104952939	-11.20162588698616	-9.93555942899534	-10.89211729722846	-11.39763027701152	-9.95150438966531	-10.38408354420689	-8.700653793927401	-9.074507491259887	-9.37365870681387	-7.191760384946313	-5.58941742953251	-8.353828393335085	17.44932052845782	51.76088331013501	75.24760352993059	94.95640189391868	86.12310526425377	82.1400049751105	81.09257605222739	96.01377089833792	91.70237105312772	61.87738407977746	48.3839923569915	61.38940375501436	78.54793289084581	57.17412938163598	41.16876006055833	29.35894237760205	23.64047222936786	37.2002744241359	36.16437527571675	41.15329808488691	49.17483702555006	69.33045823613496	85.22893124409588	95.30068048842277	93.39182106505046	89.54373986096384	79.59909595881884	67.73370293304129	66.80781170315787	67.10147265876756	30.89222607815491	-26.77176185955937	-23.50133633023152	-8.845766343033119	4.223223894070202	3.287086436252196	3.404195373194568	2.140753307510181	-2.549910265202712	-3.038626507319904	4.652910575215842	3.948945518223354	5.922242136327426	2.619478925143071	-3.079451985003232	-0.2281798918995719	-8.282355354453301	-31.2836439649147	-30.70522873607161	-5.286646891510543	3.979321964612538	-8.888895407128402	-1.516574041947464	5.111304631330384	2.665073737248989	-0.4529409285066777	-5.170323764906442	-6.834295205522153	-2.994394961936152	7.946654842585048	19.98293138901663	25.8224070240276	20.00368655544314	7.082412098474123	14.61035529927732	6.888275574066483	7.578248930258937	6.994237008466911	-0.4775151555633386	-21.36562668570076	-5.4909825565353	-12.55688437276602	-30.40002790179028	-52.15549917157632	-71.79948076396995	-56.1480371460734	-0.4409188848906922	12.29861185454615	11.88574672198295	12.75779730734124	1.481442341190146	22.07544807120577	24.6869227719686	14.90966655077239	15.88835797475492	16.73339459703899	7.108619994264515	-29.49113449295075	-36.92959094956472	-34.69411160087864	-62.70534603775761	-117.3748275849068	-126.791070874913	-104.598075585693	-90.51479058428801	-107.4757911229026	-111.521733829177	-88.38885048592778	-52.15024949340722	23.12595788746576	22.33389441645349	22.84844606957934	15.14943413602506	-41.01402066133583	-97.07868278229796	-81.02572149766982	-92.15854893955783	-97.1184559764275	-101.0588307369661	-92.89438333537831	-101.4901693512934	-3.976493741115192	34.74103511033037
-22.32573325751168	-23.17248963155207	-22.43161467774855	-22.77426083538212	-22.87079254192412	-21.35760666023734	-22.21979024882171	-23.40331368088029	-22.81778452000449	-23.9009252672774	-23.82819358242389	-23.16775225155161	-23.90504358429405	-22.02888194669602	-22.56936163497746	-22.95247062547421	-20.77734748429241	-21.35548956552578	-20.92101086846014	-21.4605127830338	-22.29694270908779	-21.39125161399417	-21.78124520310173	-22.2578085503772	-22.38543724101098	-25.41352249516358	-47.90858270737527	-49.95384423946238	-26.87411518063887	-22.04656339950822	-22.3219816280907	-16.00505838772334	-12.92295228819663	-17.94655157241406	-18.22703901070937	-18.90023421661383	-17.87419289044634	-17.96177022644243	-18.32541064623361	-17.60906874986166	-17.58000998929015	-18.38691383430046	-16.29250667062694	-16.54285562094047	-16.4568641669773	-15.69164611771625	-14.91850758438852	-20.50331028663861	3.577730326848332	44.21558053359112	65.07275855345483	83.9683054126458	76.54539207264239	69.75804564832478	70.1490936315943	84.6457142469657	81.23718059552544	53.85821219972667	42.16097592889885	51.86644167548465	70.58480579689541	47.96231158487343	32.25088962140754	18.07536576343701	12.88186605682877	27.33129247165499	28.52524342395236	31.48876425694164	41.28727453653953	59.54382463096152	75.77228320437246	87.91396800455792	87.41581350822065	84.26779649957047	74.63544366072972	59.35243017078574	60.35858099549313	59.92237308265319	24.12242310077272	-32.61170333679012	-31.16504279441397	-16.02841846578056	-3.342343749640008	-6.292581409567674	-6.746720756710587	-7.857981954332686	-11.71417692885463	-11.53589685481775	-4.759463606108767	-5.264810472855245	-1.760162304231073	-6.67200718981006	-10.70169453036843	-8.673944105017853	-20.54862715602817	-37.05893518415872	-37.5758830095284	-10.84857751835133	-6.821556336715489	-16.54609550583956	-7.591593509715736	-2.682399263025218	-1.603570068232273	-9.29729687558077	-14.90743790044367	-14.26450707967511	-14.59698126462879	-3.567560779001269	8.756849937119767	15.47942811272493	14.03869075972038	2.705473856211299	5.915207500259768	1.423932650905584	1.460376361174767	-1.376380318514805	-9.812709183906051	-25.79161864431984	-7.996555872008329	-20.59378559289806	-39.67399641328964	-61.57321839609331	-82.08535069457234	-70.85978066818257	-7.98436835733159	4.468223749855028	4.393288774088987	3.791889349306189	-7.903419345645929	16.12980931389825	17.98964755880037	8.682724927320209	9.482140271604592	10.8481453958435	-2.128696417084669	-33.23842361490935	-45.60277972073722	-42.36981646685704	-75.12811128004716	-131.1290184450092	-150.6563249139053	-119.2977742035547	-94.63960181324009	-104.2348036862176	-109.2889842556649	-96.51323446848315	-57.88157390005885	18.55648742370009	17.62628929500862	18.23612312727282	6.938327367240348	-51.3758923897989	-100.8398407426482	-83.42061236553307	-94.47114021701584	-101.6276670311955	-106.2313910118504	-103.6959232894964	-109.8923237004277	-32.42911835790493	26.33594244317511
-19.59045166597387	-19.21128452519363	-18.88910539741236	-20.08362474206907	-19.78829793144581	-19.70935787312196	-20.21688319708391	-19.85181116523949	-21.0461294089246	-20.97761967727302	-20.03483177515323	-20.15102271888746	-21.42403845123459	-20.09645485058491	-20.15310403705948	-20.11464381383265	-19.44946244379298	-20.63372897224545	-18.04199387789743	-19.70443813981736	-21.9790550587104	-19.58993341735844	-19.20223111020941	-20.47505995167792	-21.91861341379843	-26.08016759883223	-45.95805664915797	-47.96048068039679	-21.25739203677729	-20.53820884684641	-22.54354805929283	-17.96016385269209	-13.2237992243459	-19.6410216798647	-19.06333717951705	-19.26645818068413	-19.18458514575478	-18.05095236254293	-18.03500539796038	-18.07288194963698	-16.66605867212335	-16.50706132694402	-16.49424633683362	-15.604829086846	-16.3565024518736	-15.83779306878539	-14.54097508992564	-23.42036232665343	-5.253257283382233	40.49214001638389	66.97122850639988	83.78757249823143	73.80751797574615	67.22867156826246	67.79140468779141	85.99289402366024	83.11411090845307	56.27057728542026	44.14960719118423	52.88875316935226	68.82250437517514	47.17359655971123	35.87354871068116	16.83864929842969	15.33903817562124	26.91620919606216	31.88742692190722	31.68508338664037	44.88606989638672	68.21651669999748	78.54834735117039	88.52732066065919	93.69867600136244	87.55110337958867	80.64959457569203	60.41633333913509	60.00722680311908	59.77144536437655	23.69101469511509	-34.9016891579385	-30.50917666628786	-13.71855319381369	-2.700139655653643	-3.367759417001281	-5.901359534282477	-9.764036816820592	-11.90306573529293	-7.063656420745474	-3.744305725759816	-4.31900280043827	-2.731575285485491	-5.382633594490329	-10.37489666657413	-8.594816952100928	-19.97385043947569	-36.09326782696142	-36.48490262146078	-11.9930979747984	-10.06278295888355	-15.9621313857984	-10.54454026443754	-4.764708778128465	-2.855092769642042	-11.06471807102452	-15.59425342152439	-16.3344177063224	-18.10243019293276	-4.707529424534997	5.249561000904464	12.52972690865499	13.76971448391352	2.128631768073973	3.492641633975353	0.7323543545349054	0.8984376371188887	-3.333298426760592	-13.51795571630302	-30.30869525183073	-8.075455744686067	-24.76742671109548	-43.50660513034487	-63.25005884454386	-84.43645231864241	-76.64542503242836	-12.15915448739125	0.9607555733229844	1.312298857277128	-0.7790845172879699	-13.40809865453815	12.09770936595615	13.02597505418494	5.227345389719858	5.482445503905609	7.337771198300246	-2.068025274532729	-27.80688812437384	-48.38793294217398	-42.77289024908767	-80.10941694366356	-135.6727382430183	-162.2179494310044	-126.1711452223723	-97.80184033487505	-103.1030212687724	-105.9006128517006	-97.9050565369072	-63.72600844579221	3.679642874031529	12.72800903265643	13.45443611390759	-0.6220304224010675	-60.40479114358484	-108.2580769126319	-90.01949244728388	-97.14549548512085	-101.1850192478914	-89.32548036415157	-73.89157684684042	-61.88088845028703	-39.09487857394701	25.48165420410687
-16.76838629134536	-16.51624323795736	-16.05467166266282	-16.37248415919979	-15.24863088969725	-16.17502061838526	-15.5389704883591	-14.47273446876858	-14.74494163546533	-13.45547968738458	-13.08239117047735	-13.73876348884999	-12.54147479864146	-12.76387608104312	-13.84904258942396	-12.75335543051277	-12.35083129431882	-13.1397487248929	-11.43211725391927	-12.90556724940227	-13.26131442402198	-11.63209843165117	-13.17776238144664	-14.88724241826182	-17.17537219740512	-19.97872986828868	-37.84797380991896	-40.76485691803751	-6.557109713192638	-12.73415300775146	-13.90360219232375	-11.27405935178485	-6.089709743485969	-12.15408221823373	-12.35244897014035	-11.9772492272659	-11.69185043829386	-11.90934170927599	-12.03430556274446	-10.97626976191593	-11.47865881213182	-10.53692609111003	-8.677128050818567	-9.424951308511474	-9.023489030336648	-8.178539600890566	-10.53320654737792	-19.86571370229894	-9.917688159403546	41.36372019877417	70.03758994038873	88.07546568880181	78.71887675424802	70.58733303793588	75.09067283978898	91.43203437909446	89.03979419147124	63.13736010806632	54.79469136289291	57.51720903448462	75.00775819833638	55.06865435212714	42.25976304206469	20.79327811681304	20.35941806118841	33.81108620814926	39.64519075044983	37.92709225611858	51.50953965088468	75.93157226555616	84.26874324822171	96.03050108456756	102.5611512495308	95.72246039292276	88.99237882250677	66.80979692951648	65.8183330213281	65.26325356259467	28.09850371041283	-28.1888482623291	-22.54813034508896	-7.426457564489326	5.258421900686926	3.305683410120878	4.179401869990201	-2.483387692262028	-6.474405647766588	1.198215836312286	2.090245307347331	3.171034022987484	4.681491340434519	-0.6141564616655302	-4.121311137228901	-4.829199819122167	-18.24564999489046	-29.23452692264246	-28.88954202610952	-5.959929660695224	-3.762146787992549	-7.089468896911384	-4.923382170568587	1.21524143582316	2.403446008364966	-3.163752927407117	-9.302497421491154	-9.320573502862658	-13.10126476189954	1.96481532912712	9.405390188546079	17.8479925437347	19.7819732237286	10.3911505009283	11.91987027046234	10.48154712914977	8.525154718930509	5.056519329107061	-7.643297313567288	-19.92423280514828	0.8184402476619681	-19.33565126985678	-33.26838409033787	-54.24677072807958	-77.93107964192724	-38.23509776233831	12.93063402636808	11.04269566901706	9.739043075966251	8.709340647719443	-2.456523884205666	21.30179463726849	18.95601463473169	14.15484119050024	12.95237899503924	12.12384727496573	4.036914178115453	-18.22403736097652	-43.54419796374076	-37.85635065266891	-79.959637642137	-130.6553474003502	-148.0686535510402	-111.5351774634349	-86.396710658054	-92.65084339966774	-92.23074164686174	-83.04458856914448	-51.86270530274957	17.3032559471782	20.5138330721295	21.2114703451154	4.122467089149964	-58.18707936101028	-100.1393119568454	-81.60703951886437	-86.38797068405387	-98.94231136009616	-102.6841663534431	-102.6361996923254	-103.3398451239215	-46.39489188844255	37.81407831675884
-4.063959756640422	-5.442793434247722	-4.310543758301716	-4.380005812079723	-5.355442182685898	-4.525268982561961	-4.859736211008588	-3.605734668680174	-3.491376253976682	-4.327621194433632	-2.863268503839286	-2.57098502760504	-3.19223064097806	-2.50866793186438	-2.696329363434693	-3.138292220188561	-2.413789362286536	-3.709821770416447	-2.941384327889793	-3.147186881981099	-3.298567895227187	-4.121796414742299	-2.852849803477675	-4.319791103256286	-7.550475057970424	-6.47464692728218	-22.95223962131156	-23.91583037518568	8.693879026556914	5.546005100825454	-1.294150653951498	2.973955700896695	7.035687563622638	0.01351945195658999	-0.05869386174876468	0.2302333971844064	-0.8899360339632523	-0.02049263710244986	-0.2740309590357484	-0.5832677800740953	0.7646863670149386	0.4440358227498749	1.32052808401955	1.950082489100552	1.123198739991317	3.054824934501504	-0.2841186319278748	-9.242592205418752	-9.55766352951894	46.80849272315582	77.83977068700398	95.80203245079989	86.27798798057654	80.24524862715046	83.75998526761708	101.8183186947882	104.4224739491229	79.38583179393473	70.41740538195569	66.01771000022961	85.78131835564693	67.06277690729888	56.20465969388781	31.66977097117064	29.09405842373518	44.58730912508466	50.98481458745285	45.91129170024386	60.19580574248187	88.02083039285941	95.27187390875318	106.4639338420863	116.4475009812527	109.8558028723153	104.7927682512677	81.25350701893998	78.92092983453493	77.77690610737046	39.64835474436394	-17.10432454476798	-8.712545386245182	6.024338372745689	18.91888138166026	19.72837547285879	19.04422967512436	9.367481963532157	1.338624415831688	12.60651038601537	13.67823331925169	14.46491400183078	16.15622830838349	9.514558184070182	8.329095160275685	2.400795195571845	-9.884801247762837	-17.83669613112955	-16.04109066484187	8.906012578140874	8.646052074393126	8.421978202013747	11.75276173060884	12.72076855909788	13.96782876657159	9.92416722356181	3.907763949592322	2.761707523488582	0.01880118433381028	12.89071602104875	20.30966899081339	29.29829791909752	32.58188724714744	24.11969876299942	26.91077007376035	23.32910927635902	20.08591880445935	16.81228651937903	1.864244346235751	-7.363886617260277	8.864301006525437	-13.53982284311377	-25.86951306936639	-42.1432412205748	-65.98551069767228	-43.66064859893166	22.68024469662745	23.19033869577152	22.25387340291346	18.21027804212133	4.82415412702899	32.93927216342398	33.52862187624288	25.52250882836657	26.74682032723865	27.05243578772806	15.49602005297349	-2.744045893991768	-32.21416709873767	-25.33088067773997	-74.78068647469213	-120.4800037553471	-132.0094383938132	-100.0389512440463	-75.58740656564446	-75.57815940942277	-71.1218639041481	-61.63659652004374	-34.59828112755586	23.05548746982876	33.02346319421632	33.68314028829052	17.64167482740574	-42.84258797879014	-83.26973576519018	-69.73763453011927	-71.37482375809716	-86.40111617862223	-89.78450217145998	-90.64240375672799	-86.36005286071152	-20.41811479624864	50.28741022325352
2.706021063988306	3.632991337655543	4.01870628972156	3.137864749592591	4.120242925059213	3.986549397563802	3.673992489885286	3.508796984214065	3.672256676451056	3.179366744345458	4.633142898777741	3.768513488657455	3.118608500608424	3.965913236834297	2.914233472438951	3.025920142754138	4.969048163276597	3.072575544460406	3.56737858084346	3.481980011625915	3.090807662054978	3.447904260307823	3.934795227611616	0.8098151914616949	-1.925669788379864	-1.68718483930882	-17.23724160479568	-14.81185600501188	17.32658690542878	9.133263534908167	3.624953744846984	6.838192228354444	13.22006536177665	7.508042326409793	8.98526488393837	7.158045443548176	5.132911907940475	6.541793499438228	5.911218061259099	6.060301599924088	7.017526068292575	6.282764142228494	6.68107693196437	7.299863597099012	6.468280234344732	8.241040241479517	4.692918695009404	-3.397049042287769	-8.051642475191208	46.40213695301409	83.12779013905926	97.7528407820806	89.14438422718166	81.11136618551004	90.16618400525377	107.8149282424542	112.9512608710598	90.33196265457963	81.81798064962247	70.50035641279023	90.47117378894754	72.281026663944	61.8278809900206	37.18915423260569	33.45607524565298	49.92581893752163	56.34278019765969	50.04659551969947	63.66408003952361	94.39252273886297	99.64580582410417	110.8646213896073	121.8366932671057	116.466269011971	110.2855894259418	86.56124189039352	85.24997942082406	81.02889733110536	42.99078283583533	-13.59408578751879	-4.694128029790079	10.86973328920736	22.49007248880653	29.85881580652548	26.0845653229089	21.82880106598142	9.622015286797691	12.85095350780213	17.47279608325339	17.25511485534108	19.18069870580993	12.73558058511243	9.709882369319772	1.838074936104817	-9.938308332508967	-15.06248111469308	-9.506141332299109	8.220384144649614	11.6265387633841	11.58474330979355	14.06404050553374	12.60246427305805	17.65152917004642	14.80324152016786	5.063402892164277	5.323466948872323	2.313836219406042	16.04263051647017	23.96814796977341	35.40396048471328	33.42056929197976	25.80628406571861	28.09075768668117	24.34131823403689	22.20508546813461	19.06212584868418	3.025178566197368	0.1120969882904888	7.725165750847481	-13.71764431722511	-20.84090544998062	-33.6931051738063	-64.4923772591988	-2.851372936745122	26.03019454144263	24.73215335135048	24.54186793873905	21.18774497305391	4.056548550105589	34.82784924918052	33.96977638171934	28.62843682701694	28.37671484136023	26.72041539305134	17.0972704565866	-0.05521458338886021	-34.4568544570869	-27.19003948223936	-84.39674521354988	-115.4479253158405	-126.9741134944047	-97.34556692680508	-75.81148770347315	-70.0324924968487	-59.22284904333235	-49.49181617305658	-25.76371363056204	24.98265565965107	35.33725921783378	37.01146996230094	17.05539352489308	-43.30361998502723	-80.48730342641097	-66.18241385888017	-69.70059136450706	-85.78750110970037	-88.55394467627059	-89.83577277093097	-82.54963666120103	-44.00005623942709	49.63115127517909
-19.55171081162208	-18.63764116352593	-17.83177694521963	-18.4426323709677	-18.07380594630979	-17.69150523464159	-17.79433486398705	-16.37786554427299	-16.83099463039511	-16.67193553951006	-15.73670508809423	-16.27199368971148	-17.22873139677581	-15.57221178388362	-16.33879144174016	-16.84382250117348	-14.75697400949347	-17.65664501189664	-18.40652925645471	-18.01455675093454	-18.43522888251242	-17.42095257789877	-16.80965272165035	-19.66451769202997	-21.28155050581875	-20.15641166524544	-32.3371252966609	-27.32492102409675	6.903025444994334	-3.698695903632036	-10.71681851344594	-11.43239937449386	-5.915253065438478	-8.664115021353297	-8.388630038895521	-9.126458806244621	-12.19037982671458	-13.07551336652271	-12.54055307731846	-12.58760267756624	-13.39252814721306	-13.16364923790174	-13.43133139506474	-13.89931991804865	-12.53431522755288	-12.13618696468018	-15.40967273575151	-18.66897424607087	-22.20782793869862	17.57633960144467	60.98072511059098	76.48577753206126	68.70300605887513	61.60430649238867	68.30323326471157	89.57010640333779	98.56915314626886	79.0875924752938	69.84703208561659	52.84933822194914	72.04617201468227	53.65911804242961	44.96770224609342	21.82189952515671	11.13459557248068	31.35473968290492	40.38900253851818	32.80770061353942	42.34058509941052	76.63794025322034	82.83167663894255	92.54558843068943	102.2926729458278	99.44118705565197	94.9501594493336	70.58474608663765	70.12571341639951	65.50544125105556	26.29762396668208	-28.01334653997544	-20.10011844298715	-3.041914622228163	9.763467537351261	19.27796982789748	16.48518511539142	1.060567950104655	-11.23455501745067	-0.7180960707761699	2.140690942534192	3.289602891082083	4.511409037557115	-1.525961383280915	-3.659257736443664	-18.44143628758588	-30.32359630833807	-29.66962289560961	-24.26879211786696	-5.921964067526829	0.435532568830979	-1.15385994380712	-0.4055820420406349	-4.168021169259433	0.5414662490045998	2.47889415039802	-10.32049954179833	-9.106743175297339	-15.23521844628382	-3.168918378424863	8.281207092789884	21.71041880847817	18.47698218224386	14.15705411601654	15.14710968572497	9.737178455910922	6.531159476893933	2.063619038668122	-14.35766371226471	-12.63990776857155	-7.060381223926498	-28.85542675768311	-40.97769853084421	-46.09867062006425	-79.30265889906511	-41.38739803762782	10.26013155898997	12.47842919368894	12.29584573381328	8.062335504766153	-9.729625181710915	19.72045484571254	18.16034734131428	13.78871971268835	13.15576153853094	9.533671228742193	4.957039358716685	-6.883159354661174	-52.10876201146205	-46.8849175279516	-94.28815272575632	-132.8542932762883	-134.4276244422235	-112.4527025680695	-88.07992110685731	-76.00047470124403	-63.82436702265689	-65.52111255746155	-42.2465820041231	7.267305921145834	21.41190093883044	23.62083648232191	-2.539360617453909	-53.22497997297854	-91.40088314345155	-76.68307892728589	-81.17196944176952	-98.982469695147	-103.6731091480153	-99.73991880088451	-97.67425919075976	-36.82593421395918	33.85062357546104
-16.13585001190165	-17.0294649642787	-15.61034010420228	-15.52184130825552	-15.97957209670125	-15.21154769316363	-15.71395425230256	-16.66093223498834	-15.85629422410678	-17.21557356667382	-17.63876552165219	-16.88147756212646	-16.87154037066475	-16.01031689324527	-15.64804527070365	-15.84479017090364	-14.84561952706797	-16.38786920585722	-17.37702898118255	-16.08961906768193	-16.04318880527818	-15.94433945406476	-14.94492511754337	-17.83084025100252	-20.61298844527175	-19.38191337283568	-30.70103266608943	-25.09946526039123	5.725909519896696	1.469527793570172	-11.94298695917489	-12.44922739605797	-6.096580877696418	-7.941221909152652	-11.53449012118657	-10.90139917063104	-15.71054933530689	-13.15516746729265	-13.76233067405836	-15.37912732833339	-13.01234471346688	-12.75270675011464	-12.64603220627408	-11.72120447255283	-13.18866996731195	-11.84304943673677	-13.41642037915719	-18.99273038749279	-18.49513242487306	14.94450269404153	60.65882600992268	74.3046547767553	65.77547901327846	59.63286254498847	66.94433998533981	87.25961752913828	98.56517819708554	80.91781363794236	71.21773911979743	50.47432799132699	68.36556942792426	52.43241637217534	44.27624118042111	25.98797252365414	6.900814044658688	31.26707629711784	41.41882492446332	34.36604627421852	43.3997618560807	78.55722618377432	84.46595969028722	90.95581594656024	100.9812180215948	101.1529563965349	96.87327018421693	70.79143423194772	70.11573254348454	64.70494137287523	23.26853474201909	-28.74425476733741	-22.50017301260761	-3.778214208409594	8.497124823698229	18.86960488470336	18.65246454009599	0.7011268626273903	-12.6387894636966	-4.63406598843541	1.201380498617652	0.8558515223495249	3.766146121630939	-3.691390705927105	-5.517822329539683	-19.49879432995744	-32.1498347199532	-29.67045019407086	-20.1255659787236	-6.129241656084247	0.9856076832020193	-3.02710114931584	-0.8677314663460862	-4.802664126620385	-1.722797226463101	0.9850297011865763	-14.49215031477684	-12.512321463464	-17.94105565858747	-4.304265070224844	8.349438270446882	22.05561133314286	18.8377560341968	12.39489872200349	15.14901122310799	7.34521350279401	4.985674869780794	-2.29935219513122	-18.45122985403543	-10.2479181795656	-10.36725703841107	-33.37379154023711	-42.27475340996121	-40.13655777498111	-82.30443099314857	-37.10959251518845	9.313197774974498	11.49379461574047	13.14508266592345	7.690911615960658	-14.49643677492853	18.27725755592438	14.95764880469314	11.37230790281779	10.9793672437041	6.042514207133152	8.16851216884487	-3.560195027526774	-55.00387029414898	-53.73429156270267	-104.5856953641633	-131.6324433330064	-129.8638802244144	-111.6550217727913	-89.6966441635913	-69.25083117136901	-54.37210350791822	-58.72861774477063	-44.65158017120059	-4.717274121299496	21.64366312939777	20.57525953399428	-1.81768157021115	-47.17396485393935	-86.22706014975472	-73.03702264046636	-75.59335233040179	-97.06819262866993	-103.4525859061745	-94.20381726651658	-94.94531038552735	-43.98516129873386	34.6502248097874
-11.54783788868753	-10.47750198749607	-12.40023790921211	-11.86640282449498	-11.7315392840722	-12.43373665934096	-12.24066494946652	-12.65847193607158	-13.23835046043978	-12.03948873346969	-11.87099198370513	-13.16578115156808	-11.59503961580674	-12.08765410055821	-12.2038198523292	-11.38092788795563	-10.09233059613673	-11.3364353272592	-11.55002912755289	-12.9241295009569	-12.30125347735753	-11.85627147522102	-12.17323398114922	-12.17852878197303	-14.69385684080117	-17.18505359549487	-22.43978425335983	-15.48182861736278	20.05130541160364	9.735087770051663	-6.320338625526489	-7.568075788903592	-2.235355761954295	-5.296846878439368	-15.4390621435029	-8.952584085618184	-10.36784885063955	-10.37277117964719	-9.073402473925618	-9.209224587140483	-8.184782509989802	-8.464227611166251	-7.924874765515028	-8.973653533231307	-7.060216217069012	-6.330729429490354	-11.92179093896259	-13.33351014818138	-10.76416834585171	14.34736702504654	62.03797606188247	72.56173057366027	65.31460330559162	59.66621497125401	67.82624042643924	87.7276022388226	102.7726484054224	89.32927151815842	77.44704497571455	52.38432746257949	70.31937427654553	54.74462500451119	49.14303804918605	34.52191760821646	11.06081441044662	30.1221859158379	42.59840383752393	35.27037518326831	46.19815737664223	77.95285584734863	86.9754293907305	91.04054641524077	101.2518434767669	101.9654108347475	97.08580169950078	74.09952729520273	70.45921137354439	65.70624614844282	22.11326136998602	-27.56382080555345	-19.58545803278056	-1.687667135482528	9.946155480714751	22.37229506071607	22.77358230665413	7.304368113569907	-8.33001689722272	0.1214005618972607	3.20633510595998	2.66435135340555	4.593535311684747	-2.836924246329801	-3.781738493626221	-20.9396839503871	-35.13786784626772	-30.38426208411531	-19.49584327581285	-6.499487623225917	2.711130533595821	-3.277766792547339	-1.421613260890098	-5.377970678234973	-3.347481581069601	0.2862671594552353	-12.68599165579737	-11.26559202674112	-15.37268520331013	-4.186336674798028	7.796268504794241	22.27490678037664	21.74339542943183	14.41895571585695	17.74570324227025	10.02969369851044	7.925673426867121	-3.393576662538109	-21.94255052547685	-12.09738040636849	-12.14003869454692	-35.47517053839963	-45.81225173213271	-39.77213779604899	-87.98105263498647	-50.00718025942847	10.71336849769339	12.11429751850231	14.10409823003457	6.938217986111155	-20.64560331791957	21.78340232881506	14.58702909275048	13.4238759587851	13.73448859362118	0.5345095228942256	13.94261320559545	-6.079123407474682	-58.83956385291457	-64.81936944213498	-106.2744526412297	-129.9343541776398	-126.8683054619082	-110.5766691461564	-89.53953019607899	-65.70622749667662	-44.35072613672743	-47.2289130415021	-41.94699712896788	-6.13714302114478	21.89652541545378	19.47738462002452	0.2274769614889181	-44.73429911389169	-82.95241000595853	-69.24934858606242	-70.81988448124304	-93.63906776926247	-101.0324088836815	-88.55096334972079	-92.12117965269439	-48.2392608200333	33.08860554398493
-9.641262209486559	-10.23800646392338	-10.82282681242246	-9.939498929658393	-9.949035305799889	-9.953556309635925	-9.58808800756055	-11.0755552202907	-10.63347130847647	-9.97130333983139	-10.95242260642104	-9.671955742753408	-9.581768401149297	-10.15154725159056	-10.0521740193061	-8.763535873839469	-8.679388582868434	-8.57039853182139	-10.14822792643155	-10.11142920461648	-9.055163423264958	-10.11831490841919	-10.61293789617826	-10.48374929548537	-11.1386596444365	-16.61139142613473	-19.13275830926262	-13.49195470625143	21.5072632069617	15.17350216129458	-4.258014940062949	-6.1020599408659	-1.00454532381837	-7.648222592545615	-32.18161998075291	-22.36745749857322	-10.21665917750392	-7.422599260967104	-7.309725186769001	-5.853355891063636	-6.05467636680936	-6.199185995506248	-5.638180731865724	-6.190276842631341	-5.064320021984052	-2.696463888280142	-8.784432464747127	-12.76827641501635	-8.294663055013672	11.61532054432413	60.8777110977576	66.72002518623144	61.01251717960351	57.66870553504127	68.34308342876223	84.59386297552429	103.211309212908	93.91592396832503	81.13028370249366	53.11386687606648	67.35577005490899	55.47012778986739	51.50491069303183	44.17641419191293	18.35367197559461	29.76664798871049	45.57616787222986	36.28228462189966	49.5251063539891	77.41163265255607	90.40788075754453	94.20808167559467	103.2343040530807	105.1788344054678	100.925726403503	78.22222505193504	71.99803054419222	64.67520241505427	19.36120763840124	-26.69044728351219	-20.10615827080363	0.7213374902958805	10.6690914882254	25.35814904822567	24.91143757762221	10.01382531653168	-4.652785003425308	3.231518027069711	5.454568606131986	6.740127370156273	8.632578411022962	0.5144867522877519	0.009195605839437349	-27.3651514929545	-35.36441191710261	-26.71734825075129	-16.25324280600943	-1.181334060025605	6.044312086692656	-0.3078023240320817	2.5787103061175	-2.379361812736278	-1.76038603940205	3.991349694832408	-10.82798911145582	-8.684208800679258	-15.64062922171788	-2.424197045472127	8.911336433066126	25.25058658670959	25.11778151636727	17.03079042702868	20.70334748479158	15.10874881646001	9.198946612149911	-0.3922877180973074	-19.30408884704968	-12.34887158887221	-5.135139795422219	-32.66467007580464	-42.41755360297917	-33.86961039002361	-74.34303626970569	-37.41834752895558	11.37394469441584	13.5229908307122	16.7542159033912	6.397800074239228	-31.30070097638423	24.54724014993224	15.68133371744095	16.48568278795224	15.59190915653518	0.2650626347659539	18.04417271822042	-9.181929358616074	-61.08742906114747	-70.73105592530115	-105.8415746926323	-122.2915872041924	-121.2513940178045	-108.3939121058603	-84.20586181776051	-56.92894146619071	-34.9170370726169	-31.24779529489971	-33.89477230838923	2.346986392908065	23.30701050179739	18.34693934395411	1.408002585468395	-36.8136202860587	-79.54195231810053	-67.11722856298007	-63.50019487591371	-87.25631331976574	-72.92191552463211	-68.97782671749073	-86.62081600137537	-54.19922616531964	34.49121063300097
-18.66415620926366	-18.65564666567236	-19.3616793958413	-18.98624019896949	-19.70472122788019	-19.8367198722712	-19.3784906130503	-20.25715267684417	-18.83844682312136	-18.13486278331118	-19.36707664249678	-17.90129581468977	-17.18002289558043	-17.79925786718857	-17.85229139521038	-17.14355609891779	-18.1370106610192	-16.90989008129294	-18.22231928794531	-18.47013659117136	-17.79194101938077	-18.81593678818414	-18.72978599110327	-18.40133296101747	-20.74237566283116	-24.8908192169925	-25.76619231782174	-18.55509236249096	12.0830952394865	11.18891925695539	-11.92863877770939	-11.86382481221631	-9.007560493010956	-23.97572094205177	-44.26101594340533	-31.0305586816128	-20.75215928989838	-14.90904036436878	-14.7776783689213	-14.01662489810517	-14.45166710167457	-13.65281535372947	-13.73184282392142	-14.29955198603521	-12.90858331379822	-11.73464763300753	-17.70305263193168	-19.15736641691249	-15.5709559602295	-1.404466802714545	51.70236234054633	54.45108412682465	46.43121580099846	49.28929795672465	63.24356673966834	79.09980587182304	94.64865562575706	88.78067573107377	74.19639376622607	47.67826061103658	58.44215405607554	46.52966070020933	42.13799735418846	41.12325776036489	15.46716416511994	24.98139069944641	37.34138428422142	32.22307196970569	45.14065354249257	70.45751110520722	81.18402695949423	86.36929074668673	91.14925547830487	98.45735182647529	100.7005188248063	75.50065389676173	67.36601831759036	57.42514541297577	11.03438919058121	-34.12686780293762	-27.0016539491143	-7.016408933428679	3.500107101527917	19.94734318820733	19.24197938782903	6.170233275254958	-11.18359460629395	-1.34057437000034	-0.1535973678233375	-1.086747605893677	1.770635266442298	-6.724622459928199	-8.486806803314494	-38.22376079717735	-43.06694293452763	-32.68030086776858	-21.39044808891906	-5.643015930881973	-0.4191351188870698	-5.90293786160214	-4.856079401098455	-7.673817398679162	-7.823140972236288	-3.781433617300564	-15.23052662979157	-14.52945402148254	-23.3340542258664	-4.977715568856667	4.395256761736363	21.86503752823998	22.03780470915405	14.09931270338033	16.88286005617206	12.10445149713354	1.522442974760651	-9.676450117998186	-21.75993827654212	-21.86835456809662	-12.21635313805831	-36.89607061027362	-43.07874920468384	-37.63105188917701	-88.5225164001213	-42.19653427641393	-1.650447293389078	8.917731745179879	12.21285045017676	-4.009966799097384	-31.7468258384138	22.5580404206834	16.63746864970919	11.85203778116514	10.21567059534421	-6.21990842353911	15.25838466168011	-20.16012176432445	-67.78787508243826	-78.04169503247671	-120.0027781526502	-126.1087988901253	-124.7165961302973	-113.5558383715452	-85.84808762933051	-57.26625584923143	-33.67410805995549	-29.91927324370371	-36.23904921678874	-7.06402482736857	17.13274629668908	8.055782416146542	-3.440342530068307	-40.23621021699726	-79.52370520384314	-70.53797819953239	-62.86240511463372	-84.64249574030976	-55.14663196519789	-61.34479923338296	-84.22848074101145	-64.98979554499739	31.45867150832616
-16.64265471986196	-15.8168582390677	-15.48516978394929	-16.59545321220997	-14.77006675641053	-15.60862074736708	-14.77622747312678	-14.55690951558545	-15.37396389135599	-15.11407001411399	-14.65043185149835	-16.66136827920111	-15.74696575599468	-14.97584047609585	-15.38860199018596	-13.94021145751054	-15.79542251542284	-14.58546536811733	-15.6592332726145	-15.19968654600399	-14.58160559470435	-14.70002422616057	-15.43003152783796	-15.07249877617324	-19.95492242916392	-19.318360405795	-16.88439278802176	-9.51691289237376	15.50042934330138	17.98838343319083	-8.174327129450326	-8.351759023280394	-6.971723838987721	-19.34376481101254	-41.13254512083883	-24.62891281747167	-19.9654166527479	-12.15518237690986	-13.15141238982655	-11.63843403203592	-11.09200898229494	-9.219076203850577	-11.06180251093055	-11.41842818182274	-10.55304566202363	-9.807235562880209	-16.31065498766738	-17.07556011213605	-13.18551463943746	-3.120288406906226	51.06243005070527	52.06314653240588	42.19942644687873	48.61479764563067	67.94780866891048	81.24645602982041	95.50928439481024	90.47357647809841	75.584206343492	49.49468136924763	54.9525887215087	44.99145048464615	40.41547454374106	43.85919114348407	19.14807155834856	22.84892237319515	37.35047734074236	35.26688671579771	49.58180525491821	71.93766366994066	82.55788696653164	85.32325831556304	92.09688015070842	102.7193566970672	113.0730655474312	81.02121483686115	68.30899361545093	55.75653536242882	3.168372843114554	-36.33254320181031	-29.32673344580544	-12.34020363591249	-1.196218591153411	16.56639325519528	17.03890301398643	0.05396587237264328	-8.455041301887306	-0.6961329789497057	-0.6590951127003422	0.06802201635493077	0.8410335903561901	-5.812729671982133	-7.369126424311617	-41.63199805485949	-45.74398535273167	-31.28207578031505	-19.78333464826351	-0.4537495442440616	3.806975996073035	-3.93654821936623	-3.178372940369414	-6.132758949151494	-8.682666343056468	-3.697793261862714	-15.01647151150264	-18.87367296321953	-22.72205127114392	-9.491375751931258	2.424171585078128	17.39145246760944	19.33809318971282	12.16050523777569	11.81706928951598	5.464972506974135	-1.246312092931532	-15.22368179378254	-24.226141374161	-29.00133616782434	-22.57261508272358	-38.24023521599694	-38.01976987505778	-29.61401321207967	-80.03359671663509	-76.94461482348171	-12.19165252144302	4.305028549882067	6.824677024976907	-16.67439089995604	-51.19005803161177	17.58933829851702	10.1391263200195	8.134206522137916	3.04069156579898	-15.97004625728546	5.268132372035424	-27.65430158653109	-78.3843017719292	-91.70632986904926	-130.3989543076605	-128.1241421877154	-128.3869411367083	-115.296981218332	-85.02572977182072	-55.3433997127934	-31.93446620829192	-25.36056237374647	-33.15172217034232	-12.08010195620432	11.05915260533025	-1.987062068044963	-7.231624696053217	-49.99148480748418	-80.54150000221965	-73.3562881975713	-64.02845755368874	-93.48736285974029	-98.77805686485164	-76.74563859109702	-84.22307177326385	-60.73305744126126	26.06729970752626
-6.979995379998606	-8.230043101639817	-7.968737947768465	-8.423457267535593	-7.279888242334689	-6.589027918011929	-7.324834281126037	-6.612773353910271	-7.00360737273947	-7.540173157874563	-6.718323897528474	-6.399753033504666	-6.988641650586935	-6.652875087740966	-6.456444598726602	-5.785265880810087	-7.17718379842773	-8.378403753999567	-7.509147985008411	-7.116044872368718	-8.840999848946364	-7.260336745066766	-8.67926714355875	-8.4511492676898	-12.40648758090092	-5.848272770412979	-4.206307839983104	1.856356372265203	26.72006458613492	26.888103584047	3.231606700410445	-0.7218341771331822	-0.6275609968060394	-8.075803194706801	-32.47972168604865	-15.28506660650197	-13.12852878298413	-3.924704542104507	-5.414355487902441	-5.769576987211792	-2.403309210840696	-1.0903851948053	-3.755017571771148	-3.508587547054539	-3.960743914409484	-2.453706641856058	-8.772845195818974	-10.4824358992833	-4.133387778100264	-1.188115726272486	52.56105378033745	52.91857303146561	43.52802791282103	53.41982377584425	76.3614702103301	87.47279563376591	99.23822584676417	96.10562744302089	82.50650829794854	58.4032813048362	59.41309688941639	50.09286232205221	49.40156076886792	52.80040717386716	29.62767958867315	32.37054059841742	44.05848489195985	45.87655466534001	61.97025282724663	80.46950022917957	90.71895166840983	93.00110406632155	100.1959082610223	111.481829772627	124.3197282940055	96.78239650519475	76.13514605026512	62.59905741644785	11.59908288418279	-27.83438965971592	-20.22810620029008	-4.514939792381618	9.923854483374157	23.93603418710737	23.33158684977309	6.871428946000961	-4.149184748282906	5.503403331998143	7.983167809869528	7.68751410594632	10.16083615898242	0.9642052989892562	-1.856511953867852	-35.49243186237075	-37.52712003538954	-23.44386169488612	-12.96614684655648	8.225600516596643	11.40691443779001	2.943013361921047	4.531652335037961	1.79564816967769	0.9761473233341889	2.445293130424076	-5.741007208470307	-10.24030906284975	-16.5206582557426	1.973926068243387	10.91078123761461	26.40212841984615	29.56067845692185	23.16072266664656	20.72942928593865	17.19711149543215	7.463473566076445	-7.097028697483168	-15.26818269421074	-21.35058395967729	-20.75409958750642	-30.11138521300317	-23.94213986277433	-22.02662031565072	-79.63829815118099	-51.11252926648969	-18.2524748350784	-3.699431665853709	3.432517939164526	-16.28075611632153	-46.40642690238456	8.999081851197786	15.98619820898915	16.80067054897465	8.56092592616605	-19.82000784209382	3.100782317516405	-28.90018532100876	-73.76110338456752	-90.46645680507241	-120.4011945236503	-118.1505210687528	-119.5117838341037	-106.5310230673845	-75.55957847404727	-46.87650711133072	-25.54076911808239	-18.18387348711556	-23.89243974089316	-7.077606720557682	13.36739131216342	0.8728874484165772	-4.853729121607074	-44.19425742587477	-73.59927573693894	-66.56020543371176	-56.30303057743526	-85.48277791625968	-91.80864135633063	-68.11014549192784	-76.99657077593299	-49.78444529224996	31.99939939997029
-14.04191821386294	-14.33194315003142	-13.80097351915274	-12.71155286785071	-13.52221354507974	-13.7798480534396	-12.85751993505279	-12.93339305651477	-11.69070007622076	-11.88455560995153	-12.80212230588906	-12.5584554527408	-11.7345077393632	-13.00330065908354	-12.17436316288075	-10.74886728738633	-15.76714832461564	-12.84847173619762	-13.88345551434465	-13.30917081082598	-11.71845607532128	-12.01445322544637	-12.42149866472773	-13.56704465660042	-19.18158375088735	-9.177427198823011	-4.989592331647547	1.563295110482272	21.07109081087712	23.76484775599091	-1.139111086758753	-5.210405681048265	-4.903176991053371	-12.78018952754845	-34.75397565963323	-19.72461850957059	-16.8136983116802	-13.02985615621013	-12.3788513433614	-10.15849369156675	-7.808341670721077	-4.579390769778726	-6.703486641997877	-8.177613062314812	-7.944948177780581	-9.016170471573432	-14.58848438834269	-14.32889355486838	-12.92144009740944	-6.968312711002682	42.77679505643535	39.69919054503558	26.94611684949704	44.2472435885798	74.53305153488094	82.76043293569202	93.40272663315994	88.45856915846184	76.64055668998446	55.0342440538409	52.62656664344417	42.68729173912237	41.02178956076795	50.58048420211097	29.72176306231741	35.13682338662536	42.48602076190082	42.84614137146603	60.63562782057914	76.11478224787624	85.14802835902472	88.12262496279916	96.36677523643189	106.650272072786	119.7845724747746	97.10387060820787	70.07604952421119	54.87785499755683	2.467271283386388	-29.42911957695155	-23.29551241933036	-8.668150358620238	6.900529773048682	19.34606170269996	18.56460012268168	3.731057720000763	-3.466303949514597	4.335199235659957	4.509451157770329	5.680305724096144	6.090247393472481	-1.773827528063265	-4.668415698480821	-46.60001223266466	-43.08512573618652	-25.49476415833301	-15.67736002036939	6.054664462551713	5.289916608006749	-0.9981279443083935	3.50768537483971	-0.9194239239743922	-0.09680842290057967	2.510489468823138	-3.730851443542008	-12.82459451717512	-19.91335286786305	1.396878074897941	11.81561192725502	25.12409562924606	26.0913203069767	24.73561871052625	19.79478351422476	15.86282357713016	5.988274829723423	-12.86311560023626	-14.4637838131668	-20.54791288152263	-27.45870226902477	-26.30232870038001	-12.93779102970163	-24.38136818653998	-75.37496087138503	-37.6441092592116	-22.81408063569879	-4.823169267634171	-4.779007141562914	-17.05931367953193	-56.67724846393865	-18.19243377022121	16.45239194778958	17.88509771013656	6.127884228367165	-30.40411978105757	0.8883343475263104	-31.73077096823067	-68.06501956395437	-95.59440098435672	-119.486322004573	-118.724534189348	-118.7943187036657	-103.7078405938286	-70.62493365064554	-39.89646899765356	-19.86503088224728	-13.68707214562504	-18.21376290056209	-0.5896497867656336	13.0189937433454	2.163247562091897	-1.294056817658301	-42.17849891427625	-68.5250269785227	-65.34883442947006	-61.35468285872082	-78.4692219573122	-84.78518534222799	-57.28074510103432	-72.72735695974539	-45.55829338695477	30.85452479963269
-15.83783290987246	-16.18648582005409	-16.90595144124415	-15.59266036037137	-15.68988739926264	-16.86307781241209	-15.46744577575332	-16.31517107721467	-16.83527575628274	-16.22727850014216	-16.80852915494987	-16.41248726555527	-15.95026999028141	-16.8731881618575	-16.3185313109452	-15.12100919214684	-19.97935893815079	-16.5673568755062	-16.30104431062685	-14.32593798886092	-15.68188063502705	-15.36313197910408	-14.11171981731108	-18.04659360258416	-24.1508733274548	-11.98577859361062	-4.221667702969807	2.194636944753306	17.83316216289899	22.92049448947409	-3.422749656224326	-10.43773278582864	-9.794445957482743	-15.87840380416483	-36.73347838521816	-22.1682198078465	-20.22116633757546	-15.0762225561939	-10.72151254975213	-11.19683137425424	-8.913380870158214	-8.175562862322316	-3.416900116007497	-7.755467772951881	-9.598776042242548	-11.62992389417863	-17.97383208816845	-17.72610878695012	-14.31111001310532	-17.50148202930423	23.83860426303902	25.84955838202308	15.85613527606132	42.02597874886925	70.40018506123721	78.78058625524167	81.33742966455195	80.87666046757147	67.33034113089749	48.51616445906102	45.99199102700686	32.95395538951429	31.93123038130429	43.78481257181895	27.50609987320263	35.35956026768815	41.35459656121924	38.7113523039739	62.08645163042225	72.58932939904545	83.51477010325951	87.70754128089141	95.88944701280823	103.1082203539943	117.1451275647742	101.653194856993	70.94760055060965	46.09535398010757	-10.608636158056	-33.61312423197421	-26.14043649203182	-14.0668569488795	0.8828465804265022	9.803544599922304	7.673283055119043	0.559085490620248	-4.513377687153493	2.704346696165572	1.710380993450457	2.320644292815174	6.188864053354109	3.880692794795152	-8.522562880018057	-57.44784498728228	-47.29543428871642	-28.0209093173011	-17.29934798947362	4.05034347703689	1.727795099482861	1.693054450231159	0.006887806213640602	-5.638104670944401	-2.958495341712222	-1.54247069391927	-5.032363510833534	-14.84021966821106	-22.42562718311493	-3.833163423635312	6.383044561734366	19.76291293422766	22.30359846101781	21.77480772557942	16.81132051070823	8.693100896615036	4.057468099635614	-15.72820879497434	-16.93953674833268	-22.25733542909789	-38.43834193339183	-19.21102702707363	-12.62555683371326	-30.69590691258539	-83.18897703743255	-44.76981655705656	-33.53598828563425	-18.90353685579795	-8.963416406021636	-25.95319324919103	-64.2569795354276	-20.62761018212814	14.69506303734491	13.10754687366671	3.854414185277179	-41.81572662759393	-16.4890079905688	-37.60383175239505	-58.25475847062731	-99.61762059480613	-126.4958552544343	-122.838722932984	-124.5118396683688	-108.5169430440181	-70.87327402507614	-40.63803761898124	-23.13157694870005	-14.38081522134561	-20.31901781791387	0.810326514786496	7.24534540660477	-3.212145082809215	-5.374290909228577	-49.88741873266733	-76.98545578358498	-84.68528087735724	-74.47683690433851	-82.94677085518693	-83.59819866585346	-59.33479997073769	-71.89142695798304	-35.15269357827253	18.47230092601896
-19.05982745206204	-19.24422104737399	-18.85014206630796	-17.63429629205827	-18.39512897164475	-17.80839779105829	-17.39323015625485	-18.08845147008045	-16.66346628902998	-17.09800203684384	-16.85950974925045	-15.89057344956837	-16.49898279474018	-17.13531717769938	-15.59254244262326	-16.14018276903627	-19.33000040139378	-16.9613702678347	-17.71918326662253	-17.02099169774922	-17.78401837767328	-17.78876533179624	-17.30248802015463	-19.97649691067864	-23.12026276507971	-12.07701206847209	-5.899829892846501	3.509149398303158	13.13640742683192	20.17386761091154	-3.4605550256329	-14.03440782119558	-12.85523414912087	-18.26909639970361	-33.51214233719259	-23.86697022111261	-22.580550580781	-17.95014759834501	-13.42614176184746	-13.29226858324509	-13.79252685281126	-12.72814567904406	-11.26296767489729	-11.71356749599158	-13.20576885156796	-13.04950050310024	-16.74168152724398	-20.31014075523768	-19.55503815263014	-23.60419485388419	2.995621600003815	8.31062201962547	8.945498857383853	37.64506518146437	67.64659845086504	75.56464413923528	76.04635480205162	72.83048773565766	61.13922647410115	48.79200392457008	42.21164719462749	30.71568534157386	26.39960454258518	41.44659570602975	27.1940284500707	35.82512100621808	40.85118884014906	35.76279545881826	55.43835693986856	65.14490547970397	75.60792694368898	82.43873124649234	90.5964968311618	98.10237273092211	107.3878278071517	98.65600612458395	70.05774179478595	40.33688408256189	-19.17122323938664	-35.64823896997294	-23.45959096942603	-18.64340259068239	-4.918686423736503	2.414630809781201	0.7492127863452041	-6.058444650376735	-8.120082165015596	-0.7168496493731311	-2.012094268160006	-1.853270072326652	-0.9407520771152633	-5.808130704786208	-15.27845180226335	-67.51388302492613	-58.37681289134947	-33.04435722941461	-23.727851280549	-0.8762580928981549	-4.132382961360797	-10.98203660978466	-6.104239149469187	-11.08688497149107	-9.727657388779313	-6.68572573143696	-8.20824677746387	-23.75197590489057	-28.37680729693001	-8.66369326897825	1.68493193127793	13.13724427034921	14.25459889367944	16.61663343703772	10.7742732821623	3.826757826427709	-0.5366285013565886	-22.40234867065693	-23.54054888645629	-32.33977970054377	-40.11547333422937	-13.29553426831491	-15.87377771949897	-37.70121205403993	-89.34961011673467	-60.55259436342861	-37.04804342766273	-40.66159359657571	-33.95818815143294	-56.88528078569664	-101.5609179191169	-47.13597199044423	5.769952858581277	6.877629376177111	-8.719260542904806	-64.27337965572801	-38.70270233418298	-40.3280824199103	-41.35050991607141	-98.13838413183238	-129.6314061684421	-132.7437174005007	-132.2385230893335	-116.7451861573951	-70.17712749510326	-39.18356902735957	-22.18473914019185	-14.83677095478515	-19.22605348567708	-3.601041751254243	-0.822416830779602	-6.530556060733218	-10.69575673577	-62.64763473631308	-83.26876913934294	-106.6829524917185	-90.82663287108133	-88.29289383025827	-84.08297684086818	-62.36754599318816	-73.1380297886525	-43.01321717583198	-2.246904981427221
