18.37290334223468	15.573459155367	32.14796693879481	50.68447482725679	50.91432339565984	38.61312235275614	-3.26003514240864	-46.84381555251787	-37.35101557646072	-20.81329263109114	-5.911079157439076	12.04825631904856	42.27875449974897	59.31858706835084	46.24251806239369	15.25699558853478	-13.21231594163595	-32.82112378110099	-41.66652933144348	-42.46560358417065	-35.98453271131632	-29.90886398727127	-22.43483871687107	-24.3811405294212	-42.39619328274466	-39.46010147958845	1.483993156091003	6.931845125375332	-13.65455654593467	-8.709240943602936	16.17011735459545	24.53185085430925	19.30209632206487	-12.2134115261054	-48.40281409149441	-56.96590935677796	-47.2798822817258	-45.03397214556031	-42.40687254044741	-24.3143746328285	-11.87509202814647	-14.67585648354191	-31.71455266136985	-47.63435515107614	-42.88641711201211	-40.01308517141632	-36.83225577541691	-39.41637435577201	-34.52206800404036	-28.0682618173966	-31.12468702951452	-15.9027964924959	11.23981282053535	23.84817197588575	22.06682214127665	11.5254089458561	-7.40321133781805	-31.7887695699593	-32.21114706735415	-19.78748026238083	-25.68539260144041	-38.6264768944082	-43.03444432356531	-11.05248354342365	-1.534394049295372	-0.4253429654265801	13.00957733795912	16.59996791765627	10.65726712987032	11.20695484080466	25.94833758631995	10.66152941726807	-9.660404847916084	-29.65004000713492	-28.89242943611737	-35.93810293594089	-41.81289162251511	-27.60270075302719	-22.71046586750248	-27.51337274434326	-36.97486766026071	-35.65713780335579	-28.51186613189242	-11.0374055900221	0.1714998954343514	11.22327171167859	19.62346677110691	16.85046886743811	13.04209681173188	5.247475921495266	-9.485363831474615	-20.64736592582699	-18.74327780609485	-21.75147253879021	-28.16896980343023	-23.47416974962044	-3.932383719682662	-0.298725594118423	-2.445193171661288	-5.358615914300572	-2.973522140705313	21.79084245160414	43.95013282607641	55.45246563302658	51.53726980208484	41.79634838878337	13.93542256828357	11.21888999585622	9.323380813030269	0.04536483618306875	9.356839133099697	5.688389960998563	14.16154440175768	36.95375783043056	55.97324517462533	59.33151984555468	58.84182307298977	77.01750520795213	86.45553632646067	73.43505727591537	48.45330551583817	23.10148132324827	-3.363093783820148	0.102166741509734	13.39517161425584	12.08933798742919	3.345066754177765	-6.284803815619796	-7.42922506968938	5.52259207426647	20.57811059601153	52.87591827823491	70.18369044703445	65.49564781835522	49.08129673363459	19.58277906246309	-30.00542361203588	-33.27501174018943	-33.25813263175536	-30.13401389600426	-29.26168555492404	-29.24892763832889	-28.29114252592342	-29.3851249346265	-29.56249540138413	-28.17610619077959	-28.038418231881	-27.04082729837631	-25.81136964045248	-25.76447747566988	-23.75694290094145	-22.90110107809124	-22.6234962852464	-20.99164521442151	-20.05499601258987	-19.99005941664558	-19.32769817592435	-20.8775348067274	-20.76317937862223	-18.42511922399001	-17.22984231776809
21.97741006353112	12.49790389982508	31.53005118526539	51.92141752927733	50.48308366275876	38.94949855215611	-1.752379213681309	-49.68453443505018	-40.17912891164423	-23.39041376591683	-9.278269713550969	15.67949425518088	43.43700362889973	58.57801456833425	47.30391023307396	15.42756135460922	-12.21051526008875	-29.86894130845417	-40.05649867971198	-44.76237520258798	-42.90875514505842	-33.85591659309659	-24.75314838736398	-26.15646314135273	-40.16297062131918	-39.80740419070702	-1.634364310913668	7.12747406880743	-14.83343732895867	-8.895358150628851	14.9457259812811	28.85102282520211	23.83363732888961	-12.71285469804258	-51.48465613662165	-57.31271374608957	-49.02948566436862	-46.76819382048245	-43.76493319969825	-26.58308760225589	-13.54094743933263	-18.23549404430952	-35.68333131032904	-48.65031206951761	-46.97278573133809	-43.59050397018365	-38.0566635615732	-40.56798297532623	-37.20745465576175	-30.97594344066471	-35.91123097839028	-14.10671644535626	11.00512432315128	24.74646316297657	23.60743297616557	13.41053286461732	-6.119050368884132	-29.81720784393212	-31.77801451671201	-21.46894948137287	-30.27561294500242	-39.85349438057813	-43.65750742358426	-10.50626936615066	-1.455449875036777	-1.145059042948105	11.93690888742856	14.70241909950022	7.384431912522018	13.31182628349376	28.75863037222121	16.02601813404675	-6.431637766835934	-27.40309899218215	-28.38226113764938	-37.06750616814588	-42.49657568096512	-27.77594982664073	-22.22266621565706	-25.35962694022288	-37.82772337006878	-40.42363910015024	-31.17304387332058	-12.11330738974561	-0.4730852667505019	9.695935169824168	17.29811621661923	17.06562316355303	14.53044690079855	6.454951535429359	-7.897465877219474	-19.92297150362305	-21.14328866193819	-27.14116263255266	-31.2794046327204	-24.77463306447157	-7.606375783089163	0.7485360162606298	-3.906960058301991	-6.195178115136684	-2.7175998399386	22.09146882028193	42.22954935724476	54.13697720368845	53.3321283419188	41.41628258834055	10.98161097753945	10.33274963697278	10.65255361587413	4.610504012275499	13.97869560711575	10.4165018172672	14.88571950106024	36.57629916525161	55.71728483524635	61.55205703723851	56.70287636532692	75.9372014142732	83.88033408561944	70.46621331100897	46.65619335122199	23.24557909688548	-1.801773372867444	5.687727440329468	19.6264758425923	16.17943051171801	5.474789299357496	-5.300697834106927	-10.84555024135807	2.579048081728843	20.09730931966681	54.6461452518825	67.72367097531441	63.26659750883869	43.47660233791777	21.55675587410525	-26.90918934983756	-34.04185188733334	-32.5881806565921	-30.91459071464982	-29.6719782804152	-28.62667157869157	-29.37762930087445	-29.49266816524369	-28.93846238973856	-29.31241880248149	-27.53978934835988	-26.6946758433395	-26.52790566589795	-24.29172776924895	-23.76862879274285	-23.7462596502117	-21.64421558991728	-21.29632517278981	-20.49923454530432	-19.28226606765082	-20.58783106101782	-20.99958627536529	-20.45061927939224	-19.82169029571645	-16.76948726511455
22.35878991225951	14.35599003138049	32.49957571362881	49.46924750342521	47.3709191125306	39.60129258018549	-0.7684084513659286	-49.00552834248754	-40.18569270235577	-25.22804634716368	-9.491487383109757	21.28006720062143	45.18819324527271	58.42709207181025	46.50842884170544	14.8817811675047	-11.48090303402188	-29.59012888035528	-39.41224746986052	-45.72927582294494	-48.42805983650766	-39.09012662939057	-28.40337496024711	-26.68064773055357	-39.62799649097843	-38.76767931206257	-1.262061260234759	6.749169787757069	-16.21081307171909	-9.715861586369101	16.90256366807989	33.48296245134202	28.16106435623959	-10.06362088359151	-53.35546848772208	-58.46673776311184	-50.11452125067581	-49.29497171972037	-43.97092904047656	-25.63253085169646	-15.02540257047571	-20.54166652853797	-37.8925492165406	-50.48175632659013	-48.3403597949474	-47.51619402637868	-43.82885803783512	-41.77231664319646	-38.67670988147563	-33.8636911920201	-38.01153244527438	-13.16526270683119	10.2056077551365	20.85373569555088	20.4666279087308	13.13619804499666	-6.086072357175397	-25.52476738808724	-30.62664222994476	-24.37893141045328	-32.86459244467841	-45.54750235929367	-45.26423863581317	-12.13914862904591	-3.922381358403641	-2.786181944596251	10.6319676241373	10.20596744087658	4.927943241236164	13.43569140653557	32.08558667521334	19.47789516235753	-2.996993356924293	-25.94497164685271	-29.10609858201826	-37.09812966749922	-43.76872593370342	-29.99298231354231	-23.03261579460997	-23.45908261114317	-35.78417399495657	-38.59521529577404	-31.22613108573427	-10.99692315668335	-0.9513189242554745	7.335351570398018	14.98346394660325	15.75426105307008	14.88380219889149	9.287325586577879	-6.127650355163496	-23.48866553630273	-25.60561932274624	-33.14767043987331	-35.13931999346619	-26.70509381419794	-8.4020470822893	-2.831752167710988	-5.853467309555128	-9.434688921544193	-6.183603207947897	21.55174394737173	39.83931367799704	50.92399256024004	48.36170170468415	39.60845343038409	9.978277849253288	8.762748699640895	11.85421104674816	8.598222347572005	16.48236519835825	13.35930368600594	14.20092553730473	36.3153308008504	54.21788899740557	57.01493200582723	54.48382096659827	74.01518720171811	81.22424648097655	65.58598640133346	43.78705913965689	20.01322234935532	-5.029660368180259	2.370140110173338	15.48930108057579	13.7098160176439	4.629591199171159	-8.241510723487806	-15.21266981413834	-0.3142065853908775	16.81900227677608	54.56492647943526	68.00911676391905	62.0421627739122	40.46734196645548	11.16919287838709	-32.22641095645866	-33.612453213035	-33.1692841694645	-31.52584421785969	-29.15109102428113	-29.38141353073985	-29.60172054394747	-28.94068307911095	-29.77538956627825	-29.16704525196332	-27.60482500856517	-27.67553076249663	-26.03457255982113	-24.70510876827245	-24.33881227949513	-23.05319438739485	-22.15192399483425	-21.80654054031612	-19.59009587209027	-19.40339323478327	-20.01774673517014	-19.9769350123255	-20.92997064753104	-18.99736146600861	-16.3749673186997
26.6765396396425	18.32149884169581	32.7949258397478	48.00715711795783	44.87113558312711	37.5016950442789	-0.1715247968882636	-48.72678463248002	-40.66511554345618	-24.85563169448454	-9.751359010283636	24.00550416089544	47.08390452651958	56.76489611223565	47.0072930817168	16.07011383343928	-9.911630740008718	-25.91934376686248	-35.38241778488975	-47.86359435661103	-52.52177899056261	-47.47125178491575	-31.39342401283369	-28.71087361723494	-39.2198929756604	-38.5657236828182	-5.283830396894018	6.485351873248931	-16.85167207165671	-10.1695385729048	19.50155828905622	37.65793220978719	33.34475060797189	-5.019300520221179	-53.91029657142104	-58.83955226438417	-51.08061053100715	-50.22921056948451	-42.84628165705794	-25.91016517385168	-15.31077602081018	-21.82830806080199	-40.44590600691936	-51.06535452686177	-50.21702528496803	-49.1670558207714	-46.00582575940695	-41.12376285298888	-40.03761060154335	-34.77822649918602	-38.1636187689146	-12.65068128527435	9.541181614170625	16.4163973638332	17.0912244569264	12.57062257266142	-4.380984877731976	-22.42712848830081	-28.77233836739464	-25.33430546821506	-37.65662514555339	-48.1583880878336	-45.81307363443057	-13.35101221518988	-5.49998573810575	-4.330512981848017	8.253001861861776	5.842476288076909	2.371322840729988	14.65323304824835	35.7005104650907	23.38056081637257	0.1692081165992931	-23.92755123373593	-28.96146792160818	-35.89169456076496	-43.74685219243543	-30.67127515994883	-23.76495613999003	-20.59758535148507	-34.54538972455691	-39.46289403547729	-29.62590164266891	-12.30273241241093	-3.421475303510647	6.524809385538276	13.11055740083486	16.00960621258378	16.04575213768402	10.48003061022774	-4.431163941930436	-24.60437381877477	-29.95779015845636	-39.01172425115004	-39.68173823757201	-27.77154343417897	-10.96287786167505	-6.168767119924212	-7.740966935706865	-13.96684722676929	-6.946830154324289	21.56601475988418	38.11862005787611	47.09005338337346	45.77312260705696	39.46614684390352	9.566659428889864	11.13073175663084	12.65082451826026	12.8162298436938	20.18395442570483	15.82511413109552	13.74971714690366	35.82880547133647	52.16516251338913	52.91670983929737	55.41066491168613	72.90667815805881	78.16595777633756	61.14182097937288	37.64384002371162	17.6937685767524	-4.496208986254032	2.762095682512552	14.65297039104206	15.00406112280132	7.634150627757379	-8.132721312938372	-15.84673879435496	-0.6940536517150235	13.05866729504993	52.954930945576	68.37204431690697	63.99966559064046	39.646170037724	7.787776518044836	-33.14863743371581	-33.79302745325742	-33.01710065304854	-31.8764516245389	-29.48437800579904	-29.36250222201704	-29.95164930872807	-29.39380909082598	-30.03099966704059	-29.71328270305668	-27.82624781216748	-27.90650097812954	-26.62695554536782	-25.19336777499132	-25.35053000441076	-23.72207836090018	-22.17105953475215	-22.33421645665652	-20.35918417400632	-19.87104711008686	-20.91617885248701	-20.49533164348935	-21.10546831049004	-19.82490906199649	-16.56181086475669
29.98711060034765	20.04474878183402	34.6441310807196	49.66326079618386	44.0945514690597	37.27629900069871	0.04686109804578109	-48.30203557552034	-38.69564946225881	-27.2070915650026	-6.333141498577049	28.88841620761616	48.05413886277449	57.02165963470935	44.993156857401	15.04338006816209	-7.537573058982844	-23.53119685640979	-32.5721883421395	-45.62261619729424	-53.17741125661354	-48.61391622495682	-33.08344467970744	-29.57082141334052	-38.21555404279081	-36.6423784042891	-6.721467283369918	4.901115963005566	-17.59621415172245	-10.22061028737613	23.29382140291892	43.51721883416383	39.39070344019285	0.3431486153558581	-51.69208010166176	-59.65021773712238	-51.68943355134815	-46.67512757455427	-41.33736974286791	-25.93083370177374	-13.58845068238907	-19.09171094395043	-36.66674932696202	-49.46209154590156	-49.4816590764982	-45.41286107460826	-43.58654969875352	-39.87684075960505	-37.98419299085367	-35.65403363998371	-39.2704391809425	-10.54155539780845	12.12928872285806	18.89413634257545	15.97669731947093	11.22566466852794	-4.248526525296825	-20.58984439858585	-28.44228907442829	-25.78050408267069	-38.60555094850946	-46.52108317394493	-46.43019974448481	-16.32797302912479	-6.31058897009018	-4.746612974668494	7.439256723105075	5.180390760441469	-1.868691483681459	13.58014422675933	37.92267749417772	26.02080547368627	0.7668636853605904	-22.98040831831128	-28.28422082681834	-38.01094714716993	-42.17364455830727	-28.61243419154601	-22.06662231737533	-19.33235534249246	-35.73803601258788	-40.23048894485481	-26.81664347541243	-10.33011142221363	-0.4997504169271565	8.492286016927892	14.4093849427598	19.50424264803877	20.55711339236808	13.21812738742585	-0.4128946569538243	-21.26418337888799	-33.21679879885335	-41.33403056154168	-39.75475936502829	-26.97335026884809	-9.691323977060847	-7.786846945851039	-8.496295830150927	-13.34279997558775	-5.931896231681378	22.20267885339871	41.5533582858256	47.8058569319536	44.77579156280979	38.89180247387941	8.013717224073162	13.24557855537472	13.16556335808815	19.33909941774994	25.7623286197657	19.17230708850269	15.11199785961861	36.79227899341072	53.90568172338936	55.53037909512562	54.93228827720799	68.83822906320268	71.18914589327949	55.33867813184577	32.93938171987799	15.84073174536974	-4.22835619914963	6.529620434193703	16.49887579722946	15.81634202371828	6.711272927856783	-9.632664454030134	-13.0668748157824	-0.08278501993953569	10.27691897585316	53.11476483522063	67.1056989923419	67.81580383657439	42.40866222243289	3.633368971779021	-33.32188334937427	-33.82061963170111	-33.68066089584272	-30.93025739464014	-30.15850894115493	-30.21843146384765	-29.3893865545229	-30.68974086712706	-30.22973206392612	-29.16958619017134	-29.42957619125184	-28.03964623605094	-27.17201805185232	-26.95780407548125	-25.07662039762999	-24.33130698795719	-24.0718050704856	-21.8599284539888	-21.24894156665465	-20.48643208149878	-19.96953766948354	-21.68454252977381	-21.36159195227214	-19.19651566708467	-17.98427130491791
37.36135017624571	23.98237546174261	35.57005451471895	52.1109078877106	47.76546941504108	35.92249802680345	-1.240988472684762	-48.14534111858075	-36.80286967260832	-26.81515236182616	-2.165618823498562	31.29352559051705	48.84260486491809	55.62654673148745	44.06074913853809	13.53106553094159	-8.088771952004493	-19.65474956731674	-27.20489161898183	-42.5112993969521	-50.69799239975634	-49.28047458317411	-35.63177195749358	-31.31245752343676	-38.38870605360268	-34.58342541095357	-7.691396232531758	3.407922463831028	-18.38611919330947	-10.88016826989036	26.95669712636578	48.48939377519542	43.62454070008687	4.581904734030445	-49.70206928819738	-58.43342076792936	-48.98811465937052	-42.98860136155747	-36.43487102761674	-25.48185557494116	-14.30717686180816	-16.76538698763125	-34.94364867528424	-43.04137682629562	-46.65159635742253	-45.17165369139201	-42.73680200296326	-36.50596501221975	-35.53346304386486	-36.05864374495417	-38.45326359573625	-9.681095692174438	13.52478941350631	19.84872054404366	15.23952469695496	9.58449036668884	-3.069731636100244	-16.67820847379312	-26.82538370606659	-25.51899250893604	-35.07112768736249	-43.61688000602078	-44.62698410189518	-18.61349672733206	-9.433201916319547	-3.714845519325877	8.407612140643835	5.519041890315009	-2.832664868371637	17.01507420414589	39.2378402353545	28.98453853796599	4.914212828553843	-20.21467456779004	-26.27594068926368	-36.05710284495706	-39.3572420105956	-25.65089519437709	-20.03039755157801	-18.77752914736698	-31.95015003817497	-36.46435778066933	-22.92823879489077	-7.661920943028235	0.2165304800536205	10.70794492607251	17.19806176219782	21.44349386986852	24.01841139129863	16.97446560269441	2.313823957115119	-17.99609330412494	-32.69237835502685	-41.51158647144109	-38.94943204331753	-27.76574308204971	-9.853214722093185	-8.211012039744503	-10.60033198720549	-14.42203925287674	-6.322249587599174	22.73029874982524	40.55075150099321	48.46609405505109	43.94294000479624	36.5199392359288	5.801779825964388	12.18121902834139	16.46264755560986	23.62636223468218	31.09253933617185	22.72434576362622	16.66213827944568	38.44544359975595	53.39031471753248	54.63261136907971	54.21356232283284	65.91719512580113	67.67076557375356	47.61575567723963	29.88378309648948	13.78687438264154	7.007802131914957	13.53746807293152	17.01318742059999	14.86888829600332	7.786019504139574	-12.21315525577012	-13.20664690931932	-1.641824829654126	9.088548631261119	51.8192590386181	70.20076511230059	74.83261167622385	44.17075818710663	-2.73184071664906	-34.31868866420058	-33.4080164669698	-33.53129847429312	-31.37959756810352	-29.66068393567292	-30.0685845685835	-29.41946594728739	-29.75889730167665	-30.12118835611329	-28.79609833454714	-28.18100105455875	-27.74654513385082	-26.39173471650486	-26.15251510860401	-25.26419988597263	-23.33972737241993	-23.6333948697033	-21.9684861436711	-20.48660956532314	-20.75856351056871	-20.39221077399719	-21.28372965977769	-21.99279095407911	-19.61501954898631	-17.92993175529392
39.83290215880442	27.06931552031261	36.49892581002689	54.3084557485418	48.63520277437857	32.42189630148607	-4.360327450350098	-47.20730671230183	-31.86985360405788	-22.61795423462036	2.113679274544893	33.27408674585877	48.55355875176411	53.09546967857142	42.84491492471841	11.73803692454135	-8.069568689151765	-18.41563411493325	-25.02216233856109	-41.50628520076026	-51.3743373954033	-52.35366184926033	-39.53210142821939	-34.32639793902251	-38.84244318220453	-32.67459133773013	-10.57038255485378	0.5089896151330322	-20.38768136796989	-12.35967056606967	30.86665533525797	52.1847437011092	48.38240652826636	8.913966582987939	-45.35301161585176	-56.25076182216145	-46.46610957850567	-40.06150124119915	-34.52298797224148	-24.37076417477112	-12.82832110827673	-12.40333436066015	-29.26234978734584	-36.91397042823405	-39.5712115924934	-42.87953991077137	-40.41309421235411	-34.1066804124369	-33.76297710762162	-34.9449226195523	-37.49699267941008	-10.02557727196586	16.80178994868118	24.72223506039961	17.76566981040577	7.284710690125735	-3.746193228885147	-15.88971911098497	-25.7984326606707	-27.01004616302225	-32.20752016353612	-39.57198197488975	-42.4076647929507	-23.15568183193284	-12.61080026567913	-2.409449378719444	12.32862509287992	11.2145691715038	1.2469942225963	17.20659785023105	38.69076977972321	28.43566961126714	5.389303338689501	-15.28287638252812	-25.41176197873438	-34.17122505240752	-37.23122320299649	-23.61858014349252	-16.82021439290747	-19.36351093113751	-33.28118535073116	-31.16264999052885	-19.74804427241651	-4.955647054421775	4.714368442811576	12.57914183147631	21.96421235047512	26.79990776402195	30.03264577957623	25.11191221666826	8.234041281888608	-13.18680906586843	-29.26199560146551	-38.78052989822339	-34.10510880558638	-23.63527899446768	-7.526305348707808	-4.186123210316509	-9.062383912212454	-11.19864075741162	-3.082049436930163	25.692919355691	43.65766814898535	52.40792740301333	46.90301102122584	34.13507094199787	3.711693845592606	12.03563643435234	18.15823233689588	29.57850286614331	37.87442823662786	30.02080202217917	20.56008751867756	39.42056081557502	56.8810076642028	59.14060867513126	55.44479754315819	60.48393295020901	61.34706681212356	41.22128279101082	24.46088722119976	12.11469659409732	-1.897099573249136	12.0302016820043	20.40349423656795	15.92965064480143	5.997449157084645	-13.06631426891363	-11.14689835246497	-4.002657933325509	4.208868938577041	54.5599062986696	76.89932421567011	87.65936563275443	52.72618801084553	-4.778978484991512	-34.98864690713691	-33.98489460237067	-33.03603678361912	-31.37285321569772	-29.78988158991046	-29.56185826749737	-30.16188638915986	-29.87456415887175	-29.93832738065697	-29.98593880169568	-28.2420594272873	-28.39287144189643	-27.55693381632403	-26.033474544179	-25.94033195701439	-24.3296728464872	-23.35098347594993	-22.92798835747084	-21.0786068107401	-20.78038422285874	-21.62229471000558	-21.31101785044899	-21.9870637050787	-20.14282701295457	-17.19959071947369
41.97581906792175	31.31703721483888	39.52423964739717	54.76054108336831	46.80857420465782	28.71672852573107	-6.56379312453231	-46.66159157943088	-28.98617623393892	-20.51808250910256	6.493903092445066	35.65577097338644	49.15784464634572	51.56416437104377	40.93288526506393	13.21478399897723	-8.62572156266441	-16.13451014943246	-23.26546496777746	-40.96515237029513	-50.42190800115429	-53.97646192739063	-40.82511407826718	-35.09263583277658	-40.96123201121941	-31.53771535711525	-11.67999152463483	-3.068571646443502	-22.03184833125067	-12.50433056579715	32.61192412239819	56.13899665649689	50.56688410468144	10.73838760237771	-45.4568620550092	-54.66341386971908	-44.47721941967785	-37.19720068172904	-30.75795955600967	-23.56370184786459	-12.09080712666986	-6.261505266802715	-21.63264010577967	-27.04556736406209	-30.57613015236586	-39.11617846110886	-39.47277864370511	-31.95310476731038	-32.15023452766388	-34.09970816513328	-38.62784321861056	-11.13103384326848	17.10993944699118	27.50236286234383	19.76399441978441	6.031977524065667	-4.381796734076886	-14.993199844304	-24.52433094863517	-25.76544968437719	-28.56541258533696	-38.79832598877249	-43.55116969509379	-25.78588268711241	-15.4479894142633	-2.396313882762456	15.1645696748393	11.51791234958063	2.14977107719568	19.90552470540513	36.24413395895152	29.07761613665645	4.727590773999964	-15.20700386664868	-24.21821645652199	-32.77215677550055	-35.28787538923433	-21.79464039673252	-15.70496832972128	-20.14372486779496	-31.87786300884983	-27.21133175986057	-16.43120745962091	-3.342322392844324	4.36041310944762	13.92684773865238	22.78852179184929	27.21856373351807	32.930513188112	27.73090908430686	11.94888131605421	-7.974013931422121	-26.00446871414772	-37.10392982119805	-32.39659011679942	-24.28717751411352	-6.7071166052649	-4.264605670517028	-11.02851221449879	-10.25819048317982	-3.772708814266707	23.51511195435523	44.91281593130924	53.21589195507221	46.63524028727494	30.37895408970888	0.2161931174705387	10.30709229800419	17.78813716609329	33.70225337061487	41.50042433319038	34.95564674756349	25.43371534427763	39.83608212633328	58.59885295991899	59.23606410116275	51.86240907862469	55.29704476852038	53.95231536226493	32.44039523885164	19.188778269669	9.908628692979789	-0.1034709342825408	14.23893762064159	20.49213685502235	15.16796500592176	2.631213167835256	-14.14612855727955	-7.014733713573719	-2.080360496839432	3.820482901343041	53.31860704751386	82.67744288923376	95.7824232583925	61.41380314987219	-6.080363923070138	-34.78019148411136	-34.27845639410401	-34.29444011307561	-31.20524890916079	-30.2326047720311	-30.21776830291316	-29.5352998273882	-30.6454154734721	-30.48221147272506	-29.76291841740408	-29.30435442738195	-28.05667288233639	-27.41545241737708	-26.94415255997933	-25.04762683683452	-24.5282023764434	-24.09228330631572	-22.18354048575259	-21.56373619698877	-21.05527449440035	-21.07596380845149	-22.68727268870924	-22.48131976423804	-20.33351872427664	-18.96029432118513
48.10321954593951	35.27816939986843	40.01220047644154	54.04882803698837	43.91812608211427	24.83050238960669	-10.46240804985371	-47.11872718959313	-25.03743324939774	-16.37899301441945	10.93610634620268	38.32729322404583	44.61627619997176	47.25970287656884	38.5231963866587	10.21524274103166	-8.47713457654271	-13.85883350273332	-21.4394898089364	-41.43649272447254	-53.52834980959068	-55.02292067473451	-41.67412213145303	-37.22850816922136	-41.43380836877128	-32.45282380171454	-13.74904946061622	-5.816159016277368	-23.72641328903865	-13.57253027527599	34.0913986643327	58.7769625072097	52.67525492970191	12.75518607410856	-42.44381090876698	-51.27736916894526	-42.56611534470647	-34.10525817041582	-28.31509516696963	-21.66037952789935	-9.458361605240214	0.4887029082082677	-10.99395225854477	-14.0620072637472	-18.90184816186786	-30.34728893025681	-38.94047588077404	-29.41216382926729	-31.11833518802081	-37.06858405011621	-39.32043564987674	-10.11466816399445	18.24373333119968	28.07782186522178	19.76322690660231	1.628389551498231	-7.524523781078869	-15.31712122717454	-22.46004351838735	-22.22387346675015	-20.63507273499994	-38.09741512472596	-43.31584950159959	-27.30496745985397	-18.82546288569512	-3.773934177760339	12.65399228533431	8.198856616302407	2.881113495234729	21.19832535688755	35.23793976495341	28.30981989065111	4.729283960941757	-12.84765000607786	-20.94605629238214	-30.44061603867442	-33.92162826109433	-21.63988768804535	-16.15421263401203	-19.68772060569546	-30.3483612255871	-21.8643951089353	-11.77287771952007	-3.088298276406704	3.826561460418816	14.25426333902811	23.70361722371342	29.43908391248544	37.07758286633759	31.18194603031827	16.17877223384301	-2.116413171616045	-19.56538816494367	-35.86530966702804	-31.63705902747233	-23.42281099001713	-6.431892486967286	-6.832385254592509	-13.20314477229891	-11.64111691405873	-4.888624910704095	25.25843148812669	44.58280406885478	52.47234724618727	45.2787846153447	28.97426410672733	-0.1890174418647348	8.57510181269015	19.48884247946046	36.69036432716604	45.12006896902597	42.09931292757489	28.19651837389915	41.85731924348255	58.03433253895412	57.20764692568775	50.61297630851652	48.25547964500242	43.91868169462413	23.74506002941251	13.77668864519285	5.698366937320657	1.56923071117285	14.39006566772696	19.77213989828272	12.79373607951402	-1.730447743057653	-15.06869797701705	-3.532135994549321	0.8881430428186832	1.960414442004776	46.25317062934488	89.20951638718708	105.9614890134157	66.53010784294503	-0.7835945464433394	-34.71662578002781	-35.35178895400372	-33.9001715440001	-31.50649726674197	-30.74794560703305	-29.74874074202705	-30.33608828676211	-31.2618632966105	-30.6643085951743	-31.01190061039034	-29.33820304324479	-28.12403163566069	-28.21443003979101	-26.5569958458866	-25.37542758300089	-25.17911584767114	-23.08623127433026	-22.48217915496116	-21.83872544755599	-20.40137705492009	-21.67153623150324	-22.40711159154523	-21.87537614306257	-20.96270764621124	-18.17490781478682
49.18029050075125	36.55107545097098	36.58034713097265	49.3585241799255	38.79555881876013	19.11220434199532	-16.51273129039402	-46.44227063836473	-23.14900761778591	-12.29417746692525	12.04790702900812	37.49086462694436	41.93592665719115	42.0964827002187	35.17220807956159	7.352277074413053	-11.1823695413392	-15.03440021865526	-22.45338761795966	-43.81637464625254	-55.34341483300324	-56.02574072751366	-45.62605954028493	-41.30741138223419	-45.57521947766247	-34.24613442619108	-16.49783411958566	-11.24357585772844	-25.4730585381958	-12.3363199777836	33.99875988481659	58.93861085838068	53.00277126002646	13.02839700268072	-39.27952373220285	-47.84723370264396	-39.34529226121884	-30.96102239944929	-26.76547876877015	-21.02742279598289	-6.460186462515878	6.787818138041473	-0.6561304700332471	-1.026090169184215	-3.85755079497153	-17.28900360036255	-37.89170080453658	-34.02408851444073	-35.01424821185236	-40.67539751472151	-42.18152823878171	-9.11111189031692	15.01613753538402	21.71871660734274	12.00565067903642	-2.542064918677511	-9.187025474376924	-17.90151327012558	-20.95528677640556	-13.14761640042008	-10.56708518598691	-36.84438207590296	-44.41922875713834	-30.70010694326794	-23.45676948773433	-6.793031784108337	9.346529165669438	5.038144061762011	4.629664258029095	22.35127428681403	36.23938062511587	26.45540489329659	3.82481178510443	-11.57232994026879	-20.04732820543944	-27.84507202259368	-29.16289115980305	-24.14752488720842	-16.24231472563105	-20.79291326294384	-31.25668421102972	-18.04009742972647	-7.952573649398346	-4.672740281730626	1.85842625661212	11.8694930444459	24.88323470478974	32.02442808862202	38.21788979921411	34.19874709036657	21.47695847958863	4.152060571174843	-13.43214793725434	-32.60432880290762	-32.27267400513938	-24.64588904102095	-9.296221401105868	-9.30195302678851	-14.8770667302972	-15.14442684793062	-5.983574041913641	23.53481264476676	42.22883618088264	49.31945972145616	40.24122305928358	22.10970239879646	-3.921271907228174	6.440265470433474	21.20295998527604	40.94298423154873	48.6403570661775	44.45971087623263	29.82523223667255	39.12667815829866	55.70839963909555	55.03899117448879	48.01606205509705	41.22887561280601	35.53352085326065	18.74816011658169	13.37303221366767	5.114591531782708	1.89044596924623	12.19269372176615	16.18811604446364	7.946613535283007	-7.024688300759237	-16.15127110785443	-1.054647891172806	0.4152213118488817	-4.862341061741972	43.3389178359767	100.226489330316	113.667145345058	75.91539992493733	8.229694447505494	-34.50427708642053	-35.49678439164472	-34.44494353100202	-31.54264255275876	-30.45927624555867	-29.94200182256242	-29.87798830024235	-31.23066559942254	-30.84293908635743	-30.38067543714391	-29.47664036336158	-28.26768834416367	-28.03275629524546	-27.17378818493711	-25.54850320033182	-24.82916222780062	-23.95358377963515	-22.29418515881093	-21.61041914173398	-21.02217174493285	-21.42060082317136	-22.77457869680728	-22.20194843410076	-20.51365419680667	-18.74081352758662
50.76918410785169	38.43552507996685	35.95395997909742	49.01878206427813	33.11191048606736	12.4016488338799	-20.74717612161481	-46.98883821107574	-21.86571255369279	-9.930863202204705	15.09371448702512	37.19222237739774	38.66304228145663	39.45506678697404	30.8753329351498	2.232780434990104	-13.45528853751307	-18.87423182527323	-24.93741598581465	-45.11498013354253	-57.92410747334475	-55.22482307017583	-45.70698912069082	-42.69923467032424	-45.35748246124359	-35.19551921147172	-19.9597365003994	-15.12482427289478	-28.72367741600345	-13.64262963739259	35.32905943371219	58.70141677447998	54.06409190739669	15.59878183841874	-39.49013921353344	-44.91081628561739	-35.34048201940954	-29.16879178582229	-25.66598595702828	-20.13252748924197	-5.05556762688002	12.14698866987152	9.867418139965764	13.74051589669904	9.928908537246457	-4.00178235813172	-34.27842966210204	-34.94507042339035	-38.66682278713097	-43.36369194906115	-42.49840422022316	-9.442832666153549	15.86635498819885	18.90594477677195	7.622028032945082	-6.883695922635013	-13.91738915640309	-20.78922589479856	-20.84909998313651	-8.120089325208994	-2.575886677149697	-30.91450173327883	-42.01082762892941	-30.72077703964965	-27.54370284596007	-5.311536412970497	7.816193821708396	3.26943335977586	10.25200049182115	23.63072429549544	35.34448731587247	25.5694353469047	1.874087089400405	-11.91627197403579	-19.61377099811756	-27.95383304471852	-28.89491014390427	-25.22447333479658	-17.45934051752283	-21.45338838518887	-31.10187881729092	-14.14535991775568	-0.9601471552151679	-5.068238853412652	0.6294550046108611	13.35902402641909	25.3849989635238	35.31922700220531	41.39709138168217	37.02757977421311	26.62528222580107	10.42212596238573	-7.173178856946777	-24.38968351353537	-31.25439130497523	-24.70915481478886	-9.407463583146239	-11.86603350846639	-15.79722654989013	-15.96123787923199	-7.257708032846722	20.95204678316372	41.70689378770282	47.9757362405964	34.08268239429697	15.71582192113533	-7.961560349926117	7.729371382743238	24.26109015818969	44.39284000105471	51.99295772806073	45.83430930925562	30.82117398639878	37.90009471866	54.46677871907747	51.37637257261633	41.73403701347587	32.55097617726591	23.24242960364256	19.05943719586804	17.69440494738382	8.132628294993481	2.959997031971227	11.26066816656822	13.58345256151028	3.422140472887008	-10.91911433034846	-15.57865408256686	0.6650282352327395	-0.8575579600366154	-6.047272391662261	39.86810171849834	109.368182753309	119.464454277282	84.27310483012923	17.81060499035738	-32.0500405411039	-35.62584937924385	-34.12815891125706	-31.98221620027039	-30.28979081053899	-29.86634909564651	-30.73268631988407	-31.22771590176217	-31.13455494410465	-31.37187686021338	-29.39608733232461	-28.45535180129946	-28.37050639246206	-26.58323113225867	-25.45072777497109	-24.39178128236426	-23.08869693254701	-22.74729472122334	-21.73968341537557	-20.44724341906129	-21.82717544385355	-22.61795053478954	-22.64202041506036	-21.52349474895721	-18.38555151893843
51.36795017567306	39.27669399985206	34.50226887879785	45.24103411312205	28.61726932161122	7.163116185342687	-26.33058760042468	-47.55034955720754	-23.91585560590204	-7.820618496735676	14.33156791313621	34.15426849292254	34.26646637101976	34.91996539550621	24.76866927221982	-2.231512946927296	-15.25804210897468	-21.98393941714284	-26.53915769942626	-44.25397764876107	-57.0572819878571	-54.6859541389515	-46.37173671656672	-43.44870685605252	-45.29806685906266	-35.30014219682505	-24.0293514409193	-20.14126016501893	-30.11165744273438	-13.30027230254018	34.2274763532144	57.40389075406966	53.51577586120021	12.50365453810753	-40.94722425647643	-45.6345805370409	-34.4556538428447	-25.54459792979759	-26.50842571174456	-20.49004388342519	0.2289077704547822	15.93953743079976	19.77679624538916	26.22714703430512	21.28497040434894	9.579151377712492	-26.74332161081861	-37.66344224887661	-40.07046906127857	-46.41369081832443	-40.94011083281748	-12.05685245967658	13.44933233567104	17.07737714626887	2.553382763700995	-11.73964903637369	-16.14635698544618	-20.69657125805116	-20.00600959287618	-2.543214743392866	3.77215667007556	-33.15025936864015	-44.22112756179803	-33.57292344158566	-30.19574986255572	-8.745838693094527	4.573786950598901	4.080652871318478	13.36805062673426	24.30084614660313	33.60510742738131	22.67081154906657	-0.6000648699366593	-13.40308669112881	-21.12589187634603	-25.95472079932028	-27.12765157706713	-26.92786490195198	-16.63637186751311	-24.43536967629831	-32.41022874975687	-10.01355069831675	-2.750481451501457	-0.3552616691652588	1.130462750188542	12.65758025400072	27.62423325802109	38.51957990530133	45.27664106554573	42.30052128575051	29.90336444926356	15.74636973307668	0.1724915094052335	-18.63210787608676	-28.12985093515522	-25.40118779753277	-11.80061792870481	-11.96101082590752	-18.52426829403976	-18.74187653359218	-8.611434909287766	18.88788463829206	39.16248053328377	44.99854229212855	29.62932204072729	9.674815945225362	-11.05542734965138	2.759031363614099	24.21538386913204	45.0448031498463	51.31161778921	46.91773082415904	32.22792350231555	36.29733909108683	52.19911952113188	48.70719375825303	37.16810572097523	22.45345214374407	14.02793744253665	20.80650475871056	21.86010199364455	13.61085575457349	4.55021799805786	10.11051443204747	11.0604669507955	-1.660057958323193	-15.18732175946889	-15.64068267097213	-0.8616737804188688	-1.429084988601119	-8.229564396266937	42.54340502567464	112.3262536618315	122.8147680701542	90.06833492125946	23.90094051462034	-30.50648858599493	-34.81837475045825	-34.09273608203836	-31.36137241217756	-30.25208355433836	-30.23403740854513	-30.03992639934705	-31.50438048097175	-31.34197318982012	-30.53111652308479	-29.73414187173455	-28.29407896176014	-27.26826693386789	-26.96562292227054	-25.34890469599156	-24.39877595225721	-24.13151124573011	-22.42067993216324	-22.12253453602574	-21.37170279541658	-21.70707428726752	-23.34165595607357	-22.85154385021588	-21.2849082219542	-19.63960308428346
54.16268257857774	39.47204300116255	56.91530140121267	48.30208946669421	24.3146187553279	1.380939066833832	-35.11600460353839	-46.50246183025121	-26.77018274047134	-5.876190690288638	14.50570305285305	29.52734422778207	30.34715858711115	30.13592533584728	17.81338665678146	-5.917049853893161	-20.08732356116138	-25.06408921329074	-26.87122351643063	-44.79567896815263	-52.65419758763318	-50.44942806605485	-45.21666473364712	-42.54957874631424	-44.21744097245539	-36.40018862162219	-26.02390309042011	-24.63405582522569	-33.1401454220952	-14.74716612469382	32.05793986443331	53.97971745398127	50.60597575102457	9.563121933042396	-42.45677496275687	-45.01568685205507	-31.18245496500862	-21.46070446240077	-24.29131612314808	-18.64719921988626	6.34451910423661	23.40068184038859	30.88706431547263	41.54630637088076	34.82802388627232	19.8338163980651	-18.65331224998698	-38.8081967885343	-43.62556426566636	-38.79209091524382	-31.2004641706161	-2.623849799690049	18.6875457357761	14.55093473746905	-3.28295630910219	-16.98249508976613	-21.64398338511575	-26.36559833204984	-21.67624278651664	0.7428974594321289	6.501548107237397	-30.07073582786785	-36.09367497628682	-25.24123761527392	-28.90793938418358	-6.949466730531924	3.747135905710081	8.660771461678507	16.35522769458925	26.57668380410172	32.53920928529328	20.92993532403392	-4.755998119711649	-17.15069518787578	-21.84608248710572	-22.42468455338468	-24.51479080297202	-26.9013426883231	-17.73583151576469	-23.65562128940104	-32.17325214546912	-10.84655844451134	-3.511788341203726	-6.815051077373539	-1.699901433906177	13.18434635439706	28.99670202690129	42.56172279756873	46.91412752961594	45.63850546345628	37.53471787551899	24.44502063840491	8.843832319362662	-12.60691239168068	-30.76408568212025	-23.74489467311457	-13.82281196959855	-12.32481793390508	-16.63323493395842	-22.10949473576267	-5.311433845627903	19.58378594034525	37.54214307647362	40.60107898873127	21.48535934840743	3.065624715960666	-11.00320083737591	3.024855655520412	25.9999600078101	42.33562142001244	50.30525934462048	46.43453056816048	27.90192681350811	37.77111733523054	49.48140343572322	43.92861157759404	32.11472015588481	13.81794167402239	7.570086328836794	23.5791758464182	26.80539592218781	19.34372195457769	6.218629220069431	8.22747784030679	8.040275674492648	-7.34738399265234	-20.19713034549261	-13.02325280622824	-1.341714657535647	-0.7759534952588183	-9.476415094596632	34.08753226897704	118.8439637059689	124.2092625659094	94.04156909567502	27.66563749675868	-30.62572945868459	-35.26040522863588	-34.44207330684867	-32.51834757343033	-30.79464148049999	-30.81113856548325	-30.84584420729584	-31.04943736335503	-31.83359163882886	-30.79647920550269	-29.12105860815961	-29.01016641256729	-27.76468699654282	-26.67601813015727	-26.20407754241421	-24.09526332171748	-23.87901056881327	-22.99034867929458	-21.2282854208791	-21.55906440659686	-21.88027997002638	-22.91381236444266	-23.84167697866894	-21.60940669852516	-19.01622492596761
54.24064612450115	39.9455413973651	29.24820738283336	40.20523283499017	24.20758668399372	-1.698397895447386	-42.08199184642439	-48.7445481903693	-26.26108435930087	-6.449801345554818	12.1132295230484	25.03945155916659	25.3962602045309	24.05232627933879	8.859206086966083	-13.43153170744012	-22.59107662251216	-27.43510739156511	-29.89648676575354	-45.16592705088351	-48.91772985247496	-44.14565137769688	-39.30052241324802	-39.65689351685853	-43.04189523989783	-34.8266535157872	-29.17269589631269	-29.83292875785514	-35.20780942226702	-11.23354924035829	30.09628463871911	49.37598405918158	47.72043753640594	10.78811175439967	10.91514827447719	40.31363020546024	59.02867506809736	56.336606763075	44.44683927900661	9.937937107284597	9.73386512641747	26.79133015364721	39.71206007491389	51.20040564236984	45.80459913226332	30.47758977839095	-14.17646473086967	-45.01129065953967	-49.88490225586469	-39.92974114816491	-28.8006596818654	-10.60547016339444	9.979083633189418	9.469573769586873	-7.299539537704561	-22.00828950944526	-24.88305904204509	-29.96576215711974	-25.06035579115712	0.3578493393090412	8.254374134005559	-25.28648701104134	-24.53665963427096	-15.12557921422047	-23.60018666922502	-14.7715984063563	4.965644769297967	14.6314689927097	17.07244209434384	24.1152399636677	28.48689307338424	17.11466084722917	-10.18158550159393	-22.10304931966414	-25.34317183950498	-20.14156845782458	-23.48017669342352	-28.51435906860377	-17.99446756916547	-27.0167023474537	-30.5416902142394	-13.57842158210451	-5.301199695464049	-7.627973410298296	-1.369058113842414	15.77003014253967	30.10679746789447	43.51495053403829	47.8951370579872	45.74980993548604	41.74841310619331	30.01935997264422	13.12239342027578	-9.289057490830601	-32.85607858869656	-29.45020834515833	-16.7561456360628	-15.86731556212254	-18.33876574135559	-19.97233547177274	-11.96061817757902	12.80996137582196	32.03266705382919	37.12678437661759	22.16874155039483	1.200514849171384	-10.27265023169537	3.132743905157099	23.93796191455579	41.32231771515978	45.45109644219974	40.4830619249027	25.51981872650009	35.31423021955283	47.78638428121889	44.43844273587678	28.27430300226177	4.228083970081343	7.516825101149436	22.63631695782419	25.87320386350189	20.35525957393827	4.732505333276151	8.47285335980115	6.225300904294386	-10.76453439059691	-20.00610285457742	-10.92569885420937	1.409139078978967	3.76407500920368	-4.081772935982713	42.46670782450281	113.7942847798814	122.3836019998524	90.47229101409567	24.94709711664927	-30.14111195984924	-35.42376902416356	-34.18484269875677	-32.37484227800746	-30.74180291424119	-30.49451937831748	-31.06262929950947	-30.55195534348337	-31.22714181092744	-30.96285488550473	-29.24634678795343	-29.16728391516057	-28.46037720949062	-26.9750737005163	-26.56338065383716	-24.73944433014395	-24.14438483478591	-23.68656492187512	-21.08409637734064	-21.62928947785269	-22.74890739028365	-22.98311218600497	-23.68911279187938	-21.65304335442698	-18.95082855704499
51.40736729622535	38.59781906738908	23.94724842492457	38.88737126072965	31.80539100201611	-4.620361037711177	-47.88474144815626	-50.08335549936936	-28.57603498009536	-7.700233612048009	9.077973102219232	19.64668600606575	17.95037749714288	15.41167726032313	-1.378451611020353	-18.11987809009202	-26.0516951756756	-29.04499986243906	-31.9157811919975	-46.53218107761052	-45.29566594916406	-38.04947924952683	-32.81740330089309	-32.88364323416215	-41.71478887524501	-36.73239165446989	-32.47031810842367	-35.95178708492796	-39.15882648531141	-14.81202333763406	24.41690133428398	43.82346019750571	41.48918859049337	-1.271953991907765	-41.82870639439477	-44.77291578505913	-29.18208203228528	-18.47336836441781	-25.44340968221144	-14.85075024525821	10.45952876245451	28.0601735342297	48.02099065751685	60.79396422558517	54.12020441788729	40.24942771992443	-6.564566088844401	-46.27957961654351	-43.84390983337056	-32.60844874870287	-21.74125181269659	-7.769658108739691	7.159299140613655	8.030973706488112	-3.677035281347003	-20.08354795097841	-30.63687971255848	-36.50196852475085	-28.41458788050249	-0.3407213442974921	7.522293312937734	-17.23252476577369	-12.13727179853169	-5.893481145604255	-14.75113704214448	-13.67693590742454	9.623273614205004	21.96187420534898	16.81050760931703	19.59722428939648	24.36531639131778	9.631067424642765	-17.3309997378588	-26.60190388217092	-27.68813412103691	-18.32562717612058	-15.27362596332398	-14.44454485597066	-13.60932272584785	-28.01557056768559	-28.45462477949286	-14.88676388673377	-9.184126715525622	-8.59844493132465	0.07742051608761358	18.84512275641271	35.45106935146805	47.04061892805208	49.90252678396001	49.0080498090469	43.40680144141703	34.20088029369833	20.30084574022254	-2.259851403633888	-31.66634631901894	-29.4089992331086	-18.99901302771957	-17.20545019294673	-16.70321667837658	-13.69129389958192	-9.580498988620263	10.86418183247395	27.8107555981216	38.41117079577964	30.3561620776407	4.338865394741617	-9.553489084128046	2.662240473077588	24.47294526222868	40.41336212968258	40.61370439715159	34.03890832568516	20.04543681877016	34.2794410249557	48.60613042259826	49.61698391062907	32.80156943452164	3.080700175676554	7.972865303757885	23.67958640315811	25.9563481311252	17.79497094178731	2.61716068434373	6.493732692458536	2.88775237917406	-5.481832798956589	-9.545526272677421	-4.436314269566481	5.450463976391632	7.434880500650991	1.065159298139235	62.49925429668878	113.01327012314	122.5704855339525	92.48283714290955	27.25978912801702	-26.72669985943742	-35.17199702985687	-34.77577749001063	-32.06485504431555	-30.83985994083088	-30.37633141629357	-30.53857110745577	-31.80284096137751	-31.46750265168322	-31.01241714515584	-29.92393252060793	-28.68437588700118	-28.283530678994	-27.1792109071252	-25.77443116487444	-25.24834222553744	-24.35694855334771	-22.68909827749422	-20.09410947616033	-19.63678760767567	-21.10244787728351	-22.69908247045373	-22.00155300148731	-20.63658569429805	-18.6132249325421
48.87025844896084	35.80573570566349	19.73434696594865	40.78186790842398	37.21454465505576	-12.54124508260543	-54.32349287646946	-52.23493623902351	-32.63948219004487	-11.83710511997879	6.834196360096257	11.97187637365744	9.17606698587781	5.30167287301208	-16.50833257120615	-28.10404631517491	-30.0507275154406	-35.14804068930886	-36.27776390556505	-45.55721169899141	-37.62989273421988	-28.22981227140792	-24.00707794744022	-24.69701333006833	-35.60142515058243	-38.8902329580834	-34.67296984136965	-40.57479174278131	-45.33905461300509	-16.10236346480076	26.16043703797374	37.60619317141015	33.78832637350661	-6.671991971794682	-41.68195131654011	-41.24267987327892	-26.91139197780899	-18.42727116813666	-24.83385180045138	-15.98887999988602	8.334340776129352	28.98901336830505	58.83202706684432	73.46024594463057	63.54666640097054	46.35030098889411	-0.06486452146634747	-46.986832438703	-42.98364643276597	-25.97960479378349	-13.92272217036242	4.85034038258766	18.15813354155546	15.19347110169031	3.814280183217136	-14.16314703652949	-37.13552977130973	-36.39803824832654	-28.75293327054663	-3.73326613295842	4.817731785922149	-21.50593613847428	-7.202506615188383	5.094753784041416	-4.643133752375434	-14.35989818965396	15.19600057205895	28.89679713004057	19.63214744542876	17.58196068099647	20.73315149938179	4.384067435801057	-21.95512061250486	-30.05797474102422	-26.00559791100329	-8.819186824481676	6.98592689143112	8.703206819975833	3.283601225114012	-17.24365096130623	-21.27051431427748	-16.26578660900344	-13.23738837983774	-12.63277353700801	-0.1578139632258058	15.27758075093789	33.59564995327332	50.27568994409842	53.04706002223173	51.0514665705947	46.45738431517924	38.36235362715081	26.65709635608988	4.345904766113676	-28.04032234380793	-28.57592358818442	-21.67030163521719	-17.7475192186418	-12.03447030371893	-5.26459482057345	-7.103264815691432	11.26898875110248	33.47830530763542	47.05983002048646	35.73509818384258	4.36621155972955	-8.759365911970065	4.190590060880481	23.74880106132952	37.88475907266093	36.34051298368774	28.19492983129561	16.12309877764227	34.28969588882643	52.89180064789429	57.61268287161448	36.61223052862408	1.00990710510996	9.374941577370862	22.6768758149845	21.36530963183026	11.48278952372306	-2.049032402805267	2.470180890481174	-0.6044387400865503	0.150513580900224	-9.055188253458311	-6.183419781486066	11.1250187565343	15.62985335864687	8.606337673849623	69.91217587212441	111.9098204350477	119.5679577961139	92.4878999032876	28.44949957842391	-27.04977800872274	-34.24054324705656	-32.58436840577036	-31.07977343075282	-29.84759763147355	-29.03664942910297	-29.64833418754421	-30.46158748534629	-30.35726096468233	-30.33172792086901	-28.63257009812224	-27.73821541436166	-27.41505731118519	-25.63709159709265	-25.15698132926656	-24.30568940607048	-22.92239714072093	-22.41405015919304	-20.18661043526856	-20.52781838497481	-22.57745411160602	-23.44477281732753	-23.47156534745056	-22.355953534984	-19.55251153995152
45.96531034147682	32.99573824196102	18.49761369613805	54.41925441662204	42.93879153495152	-14.6118152969359	-58.39886794005753	-57.41278547442391	-38.03336113810678	-15.60308005783929	0.7371903085878557	1.502728435842528	-1.756863338637913	-11.56237716969116	-32.12243809044679	-34.77083949253341	-34.61058153956554	-40.21346476130054	-41.66991727032092	-47.68349382575633	-34.86783724153048	-25.4621931629909	-21.82039875069592	-21.21253085799458	-29.6303039358794	-36.94481312335768	-38.54694001581368	-46.61709787904368	-49.894255352095	-19.93890385136643	22.81153243771837	31.83525631378558	22.86026864528634	-13.61636981181465	-44.10781226431345	-39.29779629226135	-26.79512266432846	-19.7680523279289	-25.59367045860313	-16.64082916011779	4.508967023478704	34.53896385196197	65.46051306905031	80.60846625370903	72.88772379282335	53.61841383868909	7.131375893620032	-45.51775066316583	-43.15497511303283	-20.22153423295191	-2.512454871851446	16.92663066934875	27.80122023046533	23.98997357015855	12.14170584701958	-5.700145112484165	-27.10598098322066	-22.83290823921169	-25.45568419221814	-5.922657637745374	0.4479243903096517	-16.24342955409907	2.25184000828034	16.09904811511802	6.881735292904466	-3.208003073337863	21.49742863277817	31.1351264256557	20.07493035278918	16.86750064884546	15.6791001724493	-3.393759435303025	-26.69913538734698	-30.75831017659675	-22.78638676490493	5.442445459919952	25.316234333848	26.42273470277223	19.60653015666958	-8.800921247960105	-21.05642677750512	-18.0126500736925	-16.59630929886094	-12.70709414037958	-0.9222903762944838	15.23667373639	34.0060811322187	48.92034916594224	52.27055182449095	50.27483923424859	46.00266503236304	39.4510588902786	28.96900725687772	8.091767894241968	-20.56602303970288	-23.69158089444835	-14.33916766037697	-9.36807770956824	-5.526657984847418	3.235191300179622	-4.475051033019611	12.53980776931178	40.39647723432211	55.55901656422787	43.35895916930434	4.954078054003958	-12.23059476092868	4.761168532745273	26.57725554662369	37.48598659215804	31.37803614022113	20.85698848623281	14.32646042197212	36.94175540014106	58.84421922396541	61.84150548811795	40.86102226147113	1.213811862756359	10.25940081087316	22.65953147158308	17.84217960632395	5.38908116905543	-3.75281508005844	-2.224506803990494	2.092631957161586	7.167109907948429	-2.446699921286381	1.299897928975838	19.471669903031	17.17011315048723	13.67623654740413	63.4209862787701	111.4146831291141	115.9006216770609	83.00369499705789	17.42021338375582	-27.58355851594126	-35.49328463640512	-34.00295518430477	-31.58368188727184	-30.60144260506769	-30.39733427504143	-30.5193155783424	-31.52328113268675	-30.92712123565752	-31.63385330008083	-30.29656031821071	-29.13526051680321	-28.12547684706982	-26.80399516747792	-26.38290369701684	-25.7099224639822	-24.07473533854886	-23.3265037625502	-22.45878289249737	-21.9850986625878	-23.09757850605098	-24.467624400273	-24.02189365404382	-23.12948095504964	-20.37963290582798
47.9031951633529	26.86283072769089	14.44768112747084	58.68698530618252	52.32136390055189	-3.799037705287049	-58.20157531242842	-57.3881859994178	-41.62078995027434	-20.23459622421751	-8.257039470671657	-10.78776917954031	-15.72109867408585	-23.15409722433094	-43.13584285242848	-43.08350173948111	-35.90530954387214	-40.1821654401972	-39.9478078939859	-28.3331223787518	-17.49837461734734	-12.30398852153581	-11.82903180540092	-16.7604418600892	-24.58717792376143	-41.42637820110258	-42.67456077186125	-49.62808020427343	-53.25166540647007	-29.1554876418416	14.34209243482667	19.38726074464194	9.648100651128289	-17.81896269380752	-41.63929974636221	-33.00157874369154	-19.51576398136979	-16.97902911396335	-21.84669609717855	-18.29859939193898	3.797394094082563	43.34383689147569	81.85968414923877	91.41475414571323	85.45089228182945	65.1204452282858	9.710077292333267	-43.9618225844149	-43.51562986458964	-17.66947410049494	8.255416389803315	30.52512665696378	40.67242389043503	35.44132849159814	24.00028721137755	4.685173476333318	-36.36263196941377	-32.5623163323682	-22.69594475856542	-7.545008615981544	-8.682156387745977	-16.21868407852628	15.22100256084752	27.35585126539405	20.1576394672328	10.68238355287622	25.41857833506282	29.74085482815394	16.40549620164819	11.14262525400841	9.161700833327757	-13.0359523888398	-31.27169692552854	-33.647746865915	-15.58107496983894	19.97131221931068	42.46213933455169	41.21771746746282	33.07906101902591	3.123102962039525	-17.53012965958391	-23.31842390015447	-24.17743836494623	-11.93374486766265	-2.047567082361184	15.75576828117136	34.56716880133371	46.93992148110743	50.91784708305369	48.73226264360017	41.91637646754526	35.34857080037682	30.71809402127002	10.62668238083876	-19.10232164728751	-24.06714930449448	-4.722680322399412	3.145365763318182	-1.77165569519525	7.794624402707313	-1.63786064157074	10.920313075602	43.96913259789898	63.77244955920395	52.38832040161105	7.206691929218039	-15.95147076962007	5.298720392675193	25.38862797259821	35.11938454892493	27.0807095976424	14.40204525135482	8.931062760804082	35.54360123825865	63.57697382322124	69.07982207584786	42.1272051781844	-0.212716819654986	11.52405593648137	20.24724684855221	13.24670441429555	-2.117728621930837	-10.1019087528025	-5.241206626010694	13.02763149855599	13.44462630008627	2.572690561030697	0.7638633784303579	10.0192805942288	13.5339689796827	13.62637520885863	83.33908250241461	107.8669905125949	106.4618524542633	78.00716569637564	12.13770787596036	-33.36736830035414	-35.38638207874016	-34.39025568364076	-31.6378348114016	-31.3497562429655	-31.32770412219276	-31.42209631957638	-31.77276208942499	-32.44131648067491	-32.53834470561981	-30.57868989731145	-28.48682259119448	-28.1874741898917	-27.57701028328262	-26.68740044054027	-25.28826781679692	-24.5902762369588	-23.14560248460998	-22.84222385199388	-21.73720011098396	-22.61941928378536	-24.13716251188464	-23.60500377117359	-22.45662609123013	-20.30793516001972
34.63484881244921	42.18668418262507	53.94314143273323	62.60334714056984	57.73800492462891	2.618634605708678	-49.10182731166464	-45.83538145866487	-27.78582651548766	-18.29934612271092	-16.79686405652393	-18.99890464741992	-26.99424769834013	-37.10200396058519	-39.73740489924484	-35.39524588865584	-29.18040858429231	-31.88923245229552	-48.98595554420694	-35.49987763378175	-18.85534267924891	-11.75197559933537	-7.188774240193425	-9.49345691296503	-16.94952202931466	-38.52448487807948	-42.07637717213129	-46.33684077807771	-45.82348366026929	-24.36098443801666	1.213131586211773	9.949276434482215	1.81967664547733	-26.3394160098016	-44.10505457235513	-37.02978920509486	-23.78842237369923	-19.96253879605206	-21.13554745631478	-20.40610635604929	9.360398406183606	57.57882454268588	84.4535608443166	91.08851124315544	89.11291519389499	70.79201045738915	13.51053061899205	-41.76916390524053	-33.37234932962366	-16.32777862281762	11.01737005014667	31.94731780259536	39.18385997726142	39.66476808118887	33.90111204337757	11.37543571576668	-30.66104207734514	-35.54134175452958	-27.9903700144593	-15.43371554148894	-19.81339695719254	-10.17964010666617	21.25676289736225	36.38305501465265	36.13819059944024	34.5926960597896	29.12056528250946	27.63824412121539	13.19221031097135	4.001226023334198	1.35617322281729	-19.26879682781083	-28.56078185572539	-28.26347440602734	-7.387684504223785	31.66844328816825	53.23331141509072	52.74113506756601	43.0803239984067	10.53906195646903	14.02430308909686	31.05066319257077	2.606043824587459	1.429408453957194	9.784907487036833	19.76319925422729	36.47763025450632	49.01747817493259	49.38808888531798	45.13711764098548	35.34996114949854	28.43398320392816	24.80530993787664	3.846262392133724	-15.04318623061766	-14.40671144736274	0.01372741698077107	5.304153241915685	-1.241911681535953	9.751795999843466	25.87583794167892	40.49044188683615	48.44874583269171	67.43144523322098	56.80808572669167	8.834088464164324	-18.59656041217011	3.717892683847367	22.16629001565678	31.97908282822641	25.28871711312274	14.67998287131024	39.35830600003214	46.50377448810252	64.1688337607323	69.61014199400131	42.15783345318783	-2.987631127303132	14.5804355421941	25.23592392465076	21.43220889365909	11.10717928847231	7.185214888546852	9.094862424045402	22.62135108092963	18.38828855459286	6.195384595281212	4.029407449616656	8.824457795759145	9.081500027315769	9.931770795793966	50.14815894778366	96.80320140630977	88.48490913609578	47.30031999995413	-13.20492955471445	-34.56462344314571	-35.47959007867905	-34.11331002401448	-31.68322816850031	-30.5054003978002	-30.68878618935952	-31.15531190837601	-31.93940312922024	-32.98719670831906	-31.34587924573879	-29.6279584603796	-29.49807673123905	-28.88754102812544	-27.99689151235765	-26.90608545636502	-25.398629781539	-25.09092126084204	-23.64087509654991	-22.50238856017938	-22.49389536947029	-22.94098865104621	-24.58744075038317	-24.79180992475835	-22.35292583948575	-20.39888685209388
41.14195964292173	3.879661961770523	19.19398382587315	68.18406801952858	59.48626475052964	7.652914694744425	-49.40854536351338	-50.84608519874877	-45.94359630734243	-31.40679756362317	-25.31533334078034	-36.45026411177412	-42.5831272353708	-51.2058442870736	-56.77673523610571	-50.90058143519786	-22.01066262051944	-21.43430366831882	-40.2198769902534	-32.05432359379529	-17.96919562794199	-11.26689609348335	-8.470822904331555	-11.67253202379948	-24.13620109803242	-32.54825282135891	-29.56874001838594	-39.6126799304534	-48.26162196108965	-39.63268721217185	-9.390987971747279	-3.000082605156877	-15.50279363918855	-25.46616992923219	-40.96204968193291	-43.52714924742907	-27.77459992562132	-25.85392922301617	-26.20151763792825	-23.95590668307904	13.3738959093763	58.33345011268204	82.06563159875708	83.08380130077558	83.41697556216201	63.13143803969723	4.200633795428701	-43.36708491100012	-41.48505665040415	-10.99623845928045	15.4862456067637	32.69998717140015	40.3194714261802	42.98540245512424	42.15813399241853	18.90161398625423	-26.83033846497352	-39.60524286098354	-38.57583701817703	-29.72615314557783	-31.56339395763803	-4.004020543479101	28.03104242873536	50.35262141509173	57.62429438834448	56.90209017281967	42.5478360434696	25.73821729497911	11.43182838364368	-4.443673373665774	-11.61006185362811	-24.20057978775395	-22.10699661916573	-25.25063008910166	1.172662844185254	41.88892211873014	64.9664057849285	67.84466543020147	53.93655668827591	20.68976694170419	-17.6096507171614	-35.02199339148189	-9.887288792304275	7.973413454935155	10.563065467245	23.60326591158821	38.11880984615965	45.35285890840879	46.67218517881207	42.13562458153456	28.56063607532178	19.25543584888584	14.96076366675186	-2.859972244717198	-21.99800117165512	-8.716014185441281	1.615943240884121	8.284065878982744	-5.059348979868332	3.711316224388611	-2.217867510426117	14.70524884259913	48.74929627667638	66.71638879365457	56.28860796283715	7.592550538234491	-21.68809037448023	2.546968599283957	19.89721978292533	23.13968232223874	18.73703226851222	0.4111126332935555	-1.005393254490173	30.71857559446943	63.25368304204267	70.73366326655554	41.28810955333449	-2.455568019372549	20.70056208127465	33.50916607197007	33.31369266443272	22.19516975624117	-3.628243052807761	7.019198978591362	27.44446041890967	22.36649448679293	14.94037738152491	6.125016832100698	5.18134737964408	3.960090320474137	12.12422691267346	42.69812021068162	76.66381920842053	66.53047628175483	39.67451142025146	21.35062884704382	-6.647274140265154	-19.75362584770869	-29.48167173191212	-30.03506759002687	-29.99633322132968	-30.33167915361594	-30.65823537195035	-31.43366221492192	-32.07778070201044	-31.13126871014532	-29.59779640464308	-29.13108679799888	-27.87228930777536	-27.57575497839764	-26.63639177537442	-24.92870924601851	-24.35999774698644	-23.35571338327622	-22.25880904490361	-22.08096025872743	-22.55071101025658	-24.1489062085746	-24.69537805285057	-22.01854809054788	-20.02761771080299
33.6440733698953	-4.253480919664753	26.71257613774117	60.35798987942792	59.52271243426031	8.614439814835634	-46.99517934575169	-51.32932960635466	-45.24626018138542	-31.97411050915065	-33.83014478998643	-50.396882159602	-56.85260010548123	-49.89966328362834	-47.31429196576875	-44.50996981322868	-17.14653216071707	-14.7782222801967	-32.21632380888366	-27.09760772424733	-17.92107424661407	-14.25062846540868	-15.73421085456397	-22.11929160983317	-32.75987911170472	-25.64413719554221	-14.07886210257448	-29.37828908015382	-51.87001658798579	-42.36147384837068	-20.80504106539377	-7.769508317483485	-6.67709874159641	-14.0669675185498	-33.13916195235902	-40.49595490168247	-29.1360225752984	-26.29033965312726	-27.49988121901811	-15.28862880017442	16.95031763163939	57.83469462303361	78.93145301747626	79.50889891629885	73.62005542920429	51.57010068032645	-8.617277610490305	-32.7903616071381	-35.65481666968481	-8.572579040618677	16.81175887725743	34.38202675577884	39.64555077715988	39.15659212316194	35.94384986308251	12.9694512191179	-29.82175646619959	-42.77671461942776	-43.96428016304264	-44.45218187868278	-31.30292251796982	3.978824346138481	40.21619020638667	68.09269952781591	77.31210708318594	73.39199677985414	56.33075894875265	19.11673145450976	-0.9778486407591345	-20.45762974427913	-26.26550552410123	-16.42571984679597	-11.11025120380202	-16.06428566917168	16.08005218613636	55.36231808871366	74.87815047719823	77.12483381635991	65.92534548182067	24.87973521915194	-16.2728896060483	-42.4436097290083	-29.67086176372294	1.884810970429385	11.25898335296262	19.38077121709267	38.22314061586439	44.1930578943863	42.82154606631133	32.667687484456	20.94788055336653	13.84488194853543	7.590680194623133	-6.259939439730772	-4.914679550829419	28.87029616980493	23.90770225084282	11.44996324031627	16.70625018110042	18.6151090238551	94.09364238342482	98.82440578801959	95.73412095623308	87.73910952699805	57.52087530177261	8.057805557188885	-13.67833181975885	-0.4117214780074505	12.31611688769516	28.38493187270558	39.01101875948126	23.82838650352767	4.360084733450549	36.62768391571871	64.49432807733757	68.28199814047434	38.67951298813512	7.122268814514598	33.65903688972099	46.42263776509964	44.68169473275606	31.83983228557565	9.40093488596716	16.64257154584504	31.4085531722356	22.06565731760162	18.65447969596499	6.146162746018035	-2.102891025487168	-5.0011792528515	-3.683994414975302	1.873142019129716	41.78903700445807	42.99223999552385	-2.509777663235866	-33.64855788451257	-35.69034169174705	-36.68795691771862	-33.62065056667723	-32.09894937154161	-30.73761155915292	-30.09356187614259	-30.89920715931999	-30.81394925743899	-31.45095226552758	-31.70295358658217	-30.38544429474706	-29.54063643719064	-29.43817774455283	-27.79036236824038	-25.82219738138082	-25.29978767343283	-23.60158262403917	-23.16306192744889	-22.27191713878199	-21.67256832486049	-23.11142342096258	-23.86914811636677	-23.29684864420011	-21.65784225942298	-18.85098512454709
43.37572735327205	-2.039570478484563	27.15503038528692	49.21332674800402	51.69410338210321	6.980938047140796	-49.18443252038935	-53.93657408465646	-42.34346126572547	-43.26273271503499	-48.62119549525167	-47.1398599116983	-35.35445726347348	-23.43800712654428	-20.34865876871748	-24.41828664128178	-16.70166091078289	-9.396380950604851	-29.26710653699047	-24.86431578913368	-19.85324921119172	-18.07148236538728	-21.35778054360804	-33.6525409958266	-43.9613386175804	-24.84323325860424	-8.989690649067541	-21.15868388472546	-43.18867556691873	-31.56589532186979	-11.59000101281731	4.393831273782439	10.52299707172659	7.301264993414748	-20.80554003373283	-26.19625765964634	-20.3499627049589	-21.15531808855565	-14.63015133711087	-10.96833954327741	13.95320933947522	56.81599800386562	78.57102896339535	71.859108677253	61.25445895789477	33.1421445848149	-22.80004484669257	-27.48963127573671	-32.55923718067629	-6.742941101388453	18.54420692565958	32.17990203711457	34.38082999756875	32.25501372087484	25.27768775115908	-3.509444342322297	-38.97780851925648	-39.05778028438431	-19.45708104742312	-20.21649121716553	-17.83165271083249	18.73020144425942	55.86777935571172	81.70828944924705	91.97471057835679	95.37563846395659	70.9956453887055	19.49732212855093	-10.9027941854099	-22.9171901004608	-13.55714296021927	-1.620368137462776	0.4379731215912557	-5.412440069128024	31.04302823587017	63.77246716355273	72.85791763760557	74.05328048715097	65.74564507334009	24.29483340975594	-11.25577900124063	-39.65186569073205	-26.35150404402197	0.04097672883347059	20.03575839733492	24.85281654623714	36.01035845714352	38.73683943200041	42.8679422120976	27.91205634886444	15.37014372832158	6.320017118092892	-2.855015689396623	-17.96686051351656	-25.91739706948869	-24.92230719575088	-5.024679022976102	0.5877426622510598	-14.73004656277357	-14.49511812606823	-12.30206405481027	9.226318822317353	37.00889771334045	52.1832473631996	47.68487706846457	2.799742644844457	-6.928477486346026	0.2153854437661948	23.10850129285677	47.80370121992377	52.93675479550939	35.67045724577901	10.45180930125821	37.96175233770202	63.11269301568592	66.88952170629858	35.1126932360346	23.298260463107	45.04546655791108	55.5104579597774	60.79565166420093	47.32912440894114	16.24668447845596	24.45666991793826	27.74022935375518	18.81696002622061	19.34831938856553	3.987700896409365	-5.494936519333237	-5.925186130339853	-2.242459762082262	3.404525583823727	14.50070640338123	14.56462182426003	-22.05466887010994	-33.96293488119238	-38.08870561957701	-35.74055903412329	-33.69854574283704	-32.23011685613864	-30.26475795860455	-30.55235150044547	-31.00411916092042	-31.94964290494346	-33.0544969383987	-32.07528281365143	-30.43153892684194	-29.72474074475895	-29.22848878669879	-28.59007876964733	-26.89768504373956	-24.84767327354723	-22.77143667223612	-22.85992604475058	-21.93169865994622	-22.44677054885545	-22.7786733903435	-24.42444684778195	-25.18390008218518	-22.46241997378229	-20.38828150030599
49.41381015154252	-1.38188417606068	20.04515576704466	39.57672616619629	35.25614796082522	-10.15137077388943	-54.13482865196147	-56.65195713592041	-43.26921896027835	-38.52531353521107	-36.21746411147114	-19.91309721531053	3.790125676875903	11.60963546108229	12.98726917356493	9.069300912121832	-7.797975979854925	-5.030178784595364	-18.57346035259451	-23.13920965630575	-22.33236357607018	-23.27030511797159	-27.43580184275385	-42.76822627174806	-46.59367023432821	-34.73263837157072	-15.45602240496208	-19.74841040014587	-27.73557114161378	-14.21827618327393	-1.747983235015852	12.10632894017573	13.8826614696265	14.19173199993315	-10.96522162525258	-33.99393160706632	-32.07239280965217	-29.8082847433169	-18.03458356901916	-14.5919659845872	11.40785903173588	56.44959804824185	72.81680669053515	66.03656383839234	47.69955248107522	16.34192830368448	-34.12813092454559	-32.35283338709831	-34.47814317521937	-6.945267513617694	16.57475086124032	29.75648167798755	30.23969060139109	21.85497796104687	8.933226564837014	-19.65199934165241	-37.40193922932679	-44.05760090247043	-44.47676402826403	-41.02192181455484	-18.62385195075257	23.17516963632647	65.94188570195314	91.61577521576635	97.50708264781383	100.2162391258492	81.23642878958833	27.74912464607581	-25.9196642284482	-37.79182880580299	-16.69118657883524	0.3896868633568147	-2.253698693209856	-4.622266337287272	33.45897457448723	64.91284951078234	71.8913196869745	66.18702820112793	49.69538113127544	8.892700821211861	-15.57028187299693	-36.30076485007362	-29.974911597004	-9.004614981160898	5.989665431273522	21.5636745041391	35.38120436222869	42.52919521170463	47.23099033048635	40.15435839890966	22.08582730013688	3.742163117649056	-13.54809837833488	-17.61623106805774	-21.33649858869455	-23.0254657489923	-10.70771049070817	-8.096463985655419	-16.07771713982208	-17.33607155241191	-6.465416604506629	11.83309209784136	29.82934345870336	40.33994321822087	31.94000430110702	1.461837308886913	1.710821282940628	8.432883655701687	30.0202090112889	57.71983493983259	62.41448880163125	35.31122584510149	2.374749232427348	33.50333004227122	57.62781561579556	59.86150173541051	29.73137008760335	27.08487659062661	52.45479057969629	59.57333130416339	63.21391696272781	53.92663401199667	22.21242508941594	20.46105446172123	17.70020667826088	12.74892712848737	12.87973623313485	0.817216450921137	-8.027752460241345	-4.085965064163076	-1.605691696101587	16.28268998477421	21.27414249661166	16.07798492555526	-13.37301420613011	-29.68042185650006	-36.92304013575313	-35.23017319686272	-33.63495479947346	-31.90248590688935	-29.82363997389717	-30.53632752121854	-31.26832341767903	-32.11269351143034	-33.00685635921548	-31.99288372773998	-30.59939947757897	-30.53580397745191	-29.68625541904152	-28.6722654086708	-27.51418158626797	-25.29604148210785	-24.7300737406959	-24.01690994290658	-22.36575939872824	-22.40126904406384	-22.84773760555208	-24.51138843833633	-25.28994927398452	-22.68761932980493	-20.33897800150288
49.44446101706308	-0.6776540673110389	-2.268304297194959	18.54298653877242	4.700752788889019	-30.28579267925102	-44.64179935336367	-51.02478137143646	-46.48476819290232	-47.73263262283811	-32.54049452456223	7.031919800782475	37.54065101346742	42.52503646985298	38.00552248535644	24.82876386339842	-6.313896326622569	-19.5145415444693	-30.33182835810959	-23.55444484783061	-21.66099118850929	-26.8931197963235	-32.93670365617709	-18.16115805610178	-13.48841995508957	-13.48725248188708	-17.02190960443136	-25.4631030904755	-12.36554721813025	2.462145267904077	5.373838839686016	10.96282439131841	7.907549376422423	4.593224628689427	-12.76533796139427	-30.36977649179727	-25.73057290333992	-18.8446741860451	-20.99649488614369	-19.05852714187273	26.06123997373163	58.51884652340402	65.6213864004655	59.66630737309453	36.03925590670508	-0.09320607749816645	-41.46598249797091	-44.06877046834154	-36.77167245882447	-8.684894818758437	13.89631241263726	27.11099197006132	27.44140182760691	13.97752165486054	-5.044308388051434	-22.29660494451213	-3.718094658524649	-2.804194724760634	-2.926509350364938	-6.552613785748804	-5.513145518881856	27.20288795303469	69.29294808545455	90.62026958965959	93.82332239761649	88.95964492838277	70.47063487517198	25.92928686065295	-21.44854827428549	-23.78515095090148	-9.182632147924039	-5.029359868138783	-7.607501030882588	-8.151307770136668	29.57633601168197	61.65903220148431	66.73325737915479	52.24630408186448	30.98091751530939	-5.192804225183693	-16.88168201940164	-32.83963165350696	-37.09257891747177	-19.60036122141059	-1.630523614526851	15.10158991294895	37.3989596111382	55.30454465932473	53.86169879206642	53.25950805179588	42.58221657478549	26.97856282870447	-1.118357771588308	-32.47105760484231	-13.73370457029313	10.12507173904453	17.43954661649013	10.29565997001811	5.997890833922384	11.30866202305742	19.10147796648869	6.584562994876137	7.294427972742426	17.08903717868571	11.8330956145785	0.1997344048506875	8.634237789191786	11.14058520419104	33.97746822907249	58.82401594267105	62.32945581358575	35.0221778566069	-2.863389909359057	24.82308941834629	46.24582049128929	45.36556418179725	21.18511271602188	26.27720348906229	50.23437292361797	55.54406303372377	54.25919714485349	47.84865460489254	22.37269535862856	11.85500269094723	8.46897429384984	5.624955534683465	2.776419298962537	-3.761590818478339	9.664150974305926	3.676292487401042	9.001527900844451	23.9889088803132	24.66311574273277	17.08006294461967	2.352824788699763	-21.47322906359261	-34.04651306837928	-33.91377471109053	-33.39668090591471	-31.15590991411881	-29.43963731354489	-30.17995807581059	-30.39480165758664	-31.27048526857971	-32.01395786396415	-31.41261393699335	-30.63023236602635	-29.34937188535099	-28.38678539804528	-27.51461728123479	-25.33774097077298	-24.14657325883007	-23.09987974694008	-21.3829085018603	-21.4722124586641	-20.45547488248997	-21.43470148421056	-23.88868260545973	-23.38707093332948	-21.33054683491014	-19.72838046507678
42.5421617374941	-6.835135130905428	-31.51426243556108	-21.53811413896176	-20.94689799222152	-22.34221774995081	-36.75207775485291	-49.49677634212614	-45.58956673120252	-39.40304618312166	-10.45955471456648	34.41461242025753	59.80646004243988	64.9615573071809	62.65167076567883	39.95532575023861	-1.276702181639223	-44.16044892310225	-40.26818164680952	-33.74060570221616	-25.94106780588038	-17.91611964779491	-5.957294168326996	11.67477611837995	15.9005888919059	12.32163243031277	-8.684321438830978	-26.94523345389223	-1.015188828354098	8.77092471418905	12.7107115782656	9.2141270225477	-1.262464057069394	-13.08270018378977	-28.95900120590295	-37.36979318566802	-17.34559702278614	-10.93988419824421	-21.57081069253314	-31.33724976799277	-2.12838013742396	44.19005506553094	75.90467898832168	84.53308109364468	60.49682332226899	1.656298273031098	-36.73020168347324	-60.58935354978138	-38.67002080955524	-8.141427633376281	8.654364574457702	20.88088907227461	30.20562961623824	21.32814664356016	5.470464460998869	9.891261546397686	25.74612375740315	40.77609605667345	29.68669049414484	17.8525464604939	10.65368489238313	20.43876801038209	60.49851166924111	87.57787978811962	82.79442407380378	70.07450714739167	46.39537207889737	13.03368950040249	-26.86028778898509	-25.32597782633326	-19.77214903333703	-15.53929504030714	-26.44005281630183	-17.58747770557898	32.49077682703398	59.44857813599214	61.32580581438123	37.1134270977247	13.22534064329159	-15.14217442214181	-14.47017130260934	-31.75948678911641	-45.72474793232482	-25.98976673279236	6.787730291761989	18.77245487196961	37.94897212521977	62.69907847689859	60.42727915674965	56.57538833612898	50.83358177449827	46.48361007975865	15.24930309488542	-9.731777234812341	13.76945605981916	38.00478023899643	48.90424547040726	36.85634877993851	40.27598179540058	38.36326317315695	4.902836411822307	-0.2685010696753238	-9.390304116244067	-13.62971974458009	-13.69835656280242	5.908962743251607	14.11988164215188	17.11631788425984	28.37783885740561	45.6448990284818	44.39223068260929	14.34057312095223	-13.47201226584087	11.91159626370251	25.84584242004451	21.11400764346536	4.21945733630929	21.66332238704814	48.50452910237448	48.88146931284541	41.17443236834293	27.22748242531941	13.13069568308373	-1.835673743814198	3.673942195416657	-0.1348528846782528	-5.145330871943088	3.987315967564371	24.60692468193128	22.6189569032947	15.04061761435668	20.77482725304878	18.86056415157719	10.13816004868238	7.483683900990741	-22.31075810322625	-35.60319567612703	-36.08214102038454	-36.22633273567857	-31.74279972261127	-29.791164719395	-31.02284419709525	-31.44906783051499	-32.96633852559688	-33.33881705408521	-32.45703109737696	-31.55276286424186	-30.81990336734623	-29.90077406088437	-29.24586143603466	-27.04598194607843	-25.92545940734516	-24.89477273455481	-22.84510894963137	-21.72741660664309	-22.26816040308819	-21.59487699442963	-23.88550839411818	-24.97961440486489	-22.81392833023182	-20.90251337602814
29.62797503234151	-16.14792649384111	-28.03790308754225	-23.67311063620912	-23.46313612935307	-22.85117392485881	-34.89840047554068	-46.88426516479115	-41.13963517988441	-24.4020012515241	17.92212168257669	54.32409303904245	73.20735438829445	78.5151443574718	74.60921849571918	40.27434451633434	-10.27924938749931	-41.33482229803349	-19.6622577807658	2.534104584529587	10.29684037747467	7.573449549858424	12.50887330830426	31.79151637014945	37.71085310688409	38.12229238113946	9.977716501242298	-19.14029684438225	-0.6710318553219849	5.239284074124384	8.764826635828911	2.123234223757038	-10.35829065650699	-24.7321191017848	-30.37203410135379	-20.97734033541383	-3.950570869214459	-2.052504126043061	-19.50661529960843	-33.82636110588612	-21.28107377369582	37.00943463536208	112.6276780634766	110.8357742491396	83.2120289739737	18.88208718124838	-34.71513237763287	-56.60123220570432	-29.39390443526827	5.985243603270021	26.56081687306107	47.1149503902883	56.25524541879474	49.58577725564356	20.82083858620354	19.50162487690937	26.70616201039547	27.7644344980643	31.89939699136062	35.26972989116928	25.57094646209038	26.28731653195365	67.27362279145132	83.98202890681478	79.42160072775494	56.49263879472119	22.92958519168599	-13.83848526288222	-30.1562746616093	-24.09253140460788	-21.64773747692192	-16.91897998666133	-22.20080307244314	-13.65461406115628	27.22633769068869	49.74663506311197	65.53358175776555	47.6692511200024	17.39212670601415	-16.34519157273644	-18.36577258313889	-36.6288405930369	-48.57596858871352	-28.13524440859521	7.642285376997052	22.45059571594322	43.10633899181329	63.8460476772571	57.79048646324776	49.91121196578791	45.14137223366441	46.52213460154979	13.73686792352146	-0.5202656269005956	26.88611171318564	44.81035275320124	49.83172248486699	52.2883190133835	34.62764976323916	-2.213204411976562	-5.890464496748905	-10.13607830273889	-15.99659603773978	-10.34787443371209	-8.072864778153814	9.123403889428516	10.70573613106023	13.80771778167906	20.22115952323145	28.96777830991437	18.00944968005143	-15.36915577300766	-25.29416377384217	-8.415884118734141	-4.974927404054085	-7.553902992973462	-6.266752616942426	24.50484715008946	40.75446641003197	40.62131586300762	23.98016444130798	8.142918482816469	-6.48527008676308	-12.53293807602773	6.484671799882221	21.052821664129	4.623083951899673	8.087668943201152	25.89010869907185	27.59369848124254	13.70782888625104	20.43971114693784	14.4028671170505	13.780792986444	-3.656195218815242	-26.21014029328177	-35.41950165415062	-35.26187532173765	-34.40258270931463	-32.69707820256031	-31.78184534718622	-32.54255192960704	-32.66101066073452	-33.35021241928331	-34.36576467833828	-33.68734748293195	-32.18448598060542	-31.19365905072505	-29.84508512517078	-28.66165319477085	-27.04613749820601	-25.37281277331778	-23.87522184391366	-22.76585436673054	-22.40600397307691	-21.95024015663165	-22.37955838897489	-24.3802513043064	-24.97044549188041	-22.80855885815015	-20.63291121207686
-3.454075811637097	-36.53563850647336	-30.59500310213448	-24.20110033097166	-21.03274880845441	18.81313105892639	27.66022069010506	14.18662547230321	5.910276946258364	22.21048200175204	46.94466253560375	70.91634487939285	80.37418399342391	84.49721842895099	77.89929242401553	31.47088079767929	-24.71099122742964	-49.76573175593592	-39.87727194584915	-13.50437473740254	-0.7608802337984457	3.670972695742194	27.32597116897188	41.62509750315434	47.76268168053781	46.90120713678783	6.023109346534227	-20.65612252612806	-4.119777174432954	-1.742955171614256	-3.989200287791334	12.3643135505514	4.262703569724636	-26.84807755010212	-27.72488748012501	-9.913261401315594	5.634949389178701	10.8837536887666	10.30618764904796	-15.68095592820197	-16.24553143083995	62.16089958984799	91.99240967516522	102.7257582944702	69.01246243833685	12.61034182067692	-3.126059667074571	-3.906969254415401	42.54604897076757	37.12915812556639	40.66629037238516	52.82863893684572	57.305895530952	51.88488672698566	34.43731134445352	53.92083016874648	56.80218099570288	30.40221253351319	33.10834860361717	34.64134893620525	31.64170078896683	8.381149837271835	44.84573059875589	84.73551102322648	86.9628314457247	31.70357827522434	-4.426502306064037	-29.23296240346957	-28.16546231095913	-22.97781832057382	-35.26444946725405	-40.44525256942711	-11.20793946185506	-10.0514838002847	-4.487865127627117	72.34151583978434	100.5071683839233	78.22826047734117	37.23825722753713	-3.174989172591552	-29.93867737658604	-36.90731024949162	-6.168007208614313	76.70666299157966	80.1059153186489	98.31391731158851	125.2712061273734	123.2396211009789	99.41321202718751	87.47187185793865	94.20831216259774	79.76310709846808	29.47044024920734	35.54495016288695	45.51781351346864	54.8022575416997	59.52499307929241	56.45316136352761	30.31719705507976	18.13195617161597	27.49805889890666	17.13647874572001	4.438243361637092	-7.216600113919071	-11.61635653503436	3.848564267617348	0.4298779654244527	-8.316443614461718	1.14224243101313	3.405593883084748	-11.80074387548609	-12.02298031159728	-28.28044922043625	-27.83789179423292	-28.8400565536262	-31.2706037271588	-7.406413433955834	52.41924258535784	61.77960514205404	66.0470387717682	37.0875251789937	10.59320224570041	46.71088135293923	46.05906807902045	37.7027860357399	36.36733824935141	20.03578237663828	18.09904665641261	12.79673330064901	8.991594757119515	14.42104047395316	14.46698383528462	8.272043357174596	3.561812390323325	-2.553938057546304	-17.31155828354099	-27.58037741135735	-32.93858507086065	-33.34594249975777	-32.57821752535045	-31.69048745133142	-31.46656773508533	-31.90510512812352	-32.56613527620283	-32.60746035093626	-31.79533891373319	-30.7180234878499	-29.75863902660086	-28.73627858825313	-27.49283591180006	-25.81091377670782	-24.44552405012837	-23.40312467693099	-22.42356438109533	-21.72921168154693	-21.33046569263098	-22.4232660656636	-23.85914356482755	-23.61661767265093	-21.58828373936041	-19.1711373831489
-50.85203889876303	-58.0971596782895	-45.77702539584197	-35.56471691609622	-35.13758198371718	-19.66944407555474	-34.62793019561559	-50.57548357911932	-45.73936468818033	-0.9678643531129296	37.43551862276945	67.24779420195523	76.14109839256543	73.70155297799926	68.40937483974034	21.79277069665488	-33.40938407578398	-34.59678374495684	-27.40658933693811	-27.46469148837008	-20.07911740165974	-3.322421766207185	27.39817405114655	36.98446596382121	35.38626462152718	29.87537898905708	-14.57832202636371	-25.62002855595489	-10.53143287329692	-9.274652075246991	-1.274175789129117	28.73704306678911	27.81140837281544	-3.472581705192113	-15.11587867622501	1.449053700424258	5.313979019451892	9.851765546057038	7.286638570463708	-9.370777685331404	-9.464703412263304	69.20324787451733	72.91390151346798	63.67711854033109	35.66717162187336	38.39412706268797	-17.18469999777244	-43.57617277521649	-8.532402014820832	24.87999461151759	40.0649125174898	43.69919822578333	43.99219214354298	33.15332868840829	5.155563693090244	-0.4985803549836305	19.54330065588118	32.97002160726316	31.1488783764101	16.96144539051016	4.74615223901111	21.71718027721334	63.57877928094774	99.88481772072004	125.1201617655715	91.12472090236605	25.0537116108498	-33.38431932068124	-37.61925942142415	-33.07055530614502	-40.81574141066278	-32.63134867682146	-6.437192578773818	-11.66428332620995	14.31300226960883	65.21825473388628	90.70676025982169	69.04989402450406	25.93540569627788	-4.102916423091756	-15.81500178906327	-17.03378466751485	-11.92390284579091	-23.26441323607668	-19.19022545288971	5.661886633612426	34.33220219860317	40.08815998640222	10.19170459984059	-9.216807933960808	-6.268976316763826	-1.143234020476484	-6.209105228953945	22.51491083614235	45.49768078313645	53.83059046415082	57.41384426337243	64.42371619086396	60.55781338281599	7.065917239775843	-2.447577136197026	-8.758759138066296	-22.81652069003655	-26.29888959643341	-14.06894941581572	3.928725814275538	-1.104018912086929	-21.06072861010296	-30.05950321378344	-7.799906414846475	2.543242363274999	3.32552483039575	-1.297914716359344	-6.499588328720336	-2.943322035347023	-4.623818827335072	-7.482427101830126	29.87070964609131	62.2998067321513	82.38967606854038	63.07675004058052	16.39644867538408	-16.08156437270219	-6.994950012953836	17.803974916009	29.51795955018468	7.840109636422198	-0.9006948312506893	-17.55567711805134	-16.96255853865091	2.74352032769383	30.05571119903158	21.47968868178708	2.563954212348733	-17.92974183633629	-28.39876994398867	-33.42467515089038	-32.81718597647813	-29.66493572432404	-27.37503502142636	-29.10929337934391	-28.71776261688763	-30.75453595039579	-29.39924271699454	-28.88776412337336	-28.35503199702498	-28.21762602471364	-27.86236752783185	-27.47242380292647	-26.13764408599485	-24.71864105671091	-23.49532964427038	-22.3614020268102	-21.57797883907091	-20.80010473900154	-20.77006838999984	-22.47739532394496	-23.31422451855474	-22.34981004251921	-18.58319563849818	-15.71639042125537
-57.99985663195133	-42.79988589186212	-27.3723097520037	-15.49625322240234	-16.67026082445437	-32.2789280921717	-41.86939669279894	-41.88258604582629	-36.82014468930205	-15.53606886602034	40.90343608541303	66.47590651221674	69.69585147225638	67.82228500076189	60.36222148944779	9.015086940508752	-37.55635634842923	-38.46880109181359	-31.80852482906062	-38.77209450380687	-35.31308337602121	2.142942082916136	27.17183644620673	30.43593909603243	23.78731155917427	60.19486398957304	82.1789933115831	78.07636058011383	70.10496262305918	73.37561227959145	82.78420456697313	58.24177720497124	30.06225245834509	24.31418530594453	11.4002971241153	-2.329307634403108	1.627921119423775	-10.38362223913913	-19.52004736450931	-25.27952139732776	-31.76771576718494	-22.25935809718709	-9.289764038564442	-24.96925394664578	-50.94634354398187	-50.96131466704713	-47.55883803248884	-41.79308828427378	1.114112441879001	28.44089669232631	38.16707642789015	25.80081972031553	12.32077900494716	-19.42271193963126	-35.10248051027463	-30.75352197463275	-0.4251358345425729	15.23291493045042	17.34339672807573	-4.812977747140678	-8.771383564217388	13.49713447661458	59.19328331000497	94.40537467386412	110.4859773074498	82.76980007339051	36.64310873820693	-22.46130944577459	-30.46496562941428	-12.01015906557342	-7.983875859902184	-26.58480236682112	-21.13419420425481	10.09575347240337	25.20366660486712	53.64757410263422	52.93461967062717	29.78324184231536	-0.2739969431891041	1.422703274397463	9.277043077014525	8.644583817162754	5.578978114344523	0.0286216976006699	-18.06395863533152	-5.709176944196543	7.520429027718137	-2.405940626302367	-23.49471727490663	-30.90331940669267	-30.08436314395686	-31.28688268341938	-9.047302195112309	22.06783075926353	42.72506114315854	45.80274166143965	41.5540403662871	39.24705971743543	12.93214829246324	10.13141627533696	17.4984082026869	-4.640614731843357	-23.82572272325643	-17.72395952110583	-3.473433152157952	17.61340396424634	29.85815426078	-0.6124459750050164	-5.170335387258831	20.39097817152322	33.64373958931333	39.82458771535732	31.26050579303444	29.89661320606405	33.01674014046472	26.01578256910432	14.40861493796291	22.00063012507985	53.76411514922563	69.01055639723921	60.78461532912013	33.67183744262189	7.776706293329994	-4.33891923210706	9.959032531025287	17.6607474805196	23.36675615489816	26.47757243802721	22.6924081083518	25.70118732481455	37.43205944295767	39.85369535902095	24.78529590671394	21.5624395347977	-1.318540077312434	-24.21508103726956	-26.16616167727972	-26.75453564240502	-30.21246608943216	-32.78853328845776	-29.91224051709207	-29.42730652752692	-30.5601208085389	-30.58308430288594	-30.05654563891756	-31.32865922285959	-29.79179329657325	-28.98455036705127	-28.05756172289625	-27.00158881226707	-26.07323600687585	-24.38314928921091	-23.11829507252565	-22.43490315278092	-21.48302379622669	-21.41900561323286	-22.92732998974753	-23.63956306081195	-23.04883248748177	-20.84680364009608	-17.94136544564356
-39.55966364304751	-21.59023115497172	-2.713877347753908	2.891205853589668	-3.895642758006488	-24.57301470918574	-36.05965328339838	-27.93201599906547	-26.36709409592535	-13.7797806723467	37.44789837538661	75.34030246210568	95.93429887390619	90.4020726248703	47.12872009752721	-6.067567562661054	-21.87084083498553	-37.44340794539571	-50.59483389450443	-50.28871323069924	-38.02977378811934	-2.826694188846886	26.92952493893029	48.66105638906168	48.21283203683049	3.452495081104928	-46.14036014060338	-24.44388164289501	7.97369419501274	26.18311422384073	14.16038077726353	-15.09204111127963	-23.14466162737813	-26.39317118301108	-23.27839926031328	-17.27591633425754	-10.08976017440358	-18.059107875775	-22.79185102666099	-18.92191767345304	-25.09136996872007	-32.44093323412994	5.617196538866494	37.53061204711827	35.18441389134728	11.38924968995639	-31.56426959669994	-41.42840261201428	-3.296749666415508	27.44051368873858	46.18976544855849	33.21679782002889	18.67168031797496	24.73992291336015	26.89941942364572	31.80324781427242	36.48716395984576	37.63564236384065	53.39982427497046	35.89850101598034	-17.03002107467893	-28.00039168984381	16.47922620890768	60.35761667534297	56.42972393703974	37.27179343443646	10.31438811467893	-34.00226325619718	-25.34761045165533	-4.975618927386677	-7.254927310328242	-37.11668267943162	-41.02335854148583	-26.82603869987759	-24.01304230081564	-3.815215061189349	-6.773427182093144	-15.72813061552279	-10.61882460507837	-0.3311966309215677	5.737543826823412	15.3422472622521	-9.065427580060259	-25.39906436243416	-20.48381524119731	-18.50490163517412	-20.40237620870988	-29.37118305163949	-24.47225632296488	-27.13964992400531	-28.1525376423412	-24.88937033981529	17.56953695242396	55.91864367488643	107.4170246329972	92.03085177404853	67.06243335305618	42.09854035696605	24.02598626101019	18.71002422257385	7.988147484277192	2.137808461104783	11.37542554145716	8.245266220284918	22.86788496623842	24.73411377120408	33.11410884373356	-2.610816412858981	5.830932090543627	23.97544881203322	32.20032533100675	42.53788091243149	43.40014647502301	47.76375675494307	51.28368282867245	46.42105295736616	39.58390041160294	33.56402425414899	49.93304283921833	49.38839430055066	33.14339411863386	20.24892778083972	11.84507082507514	16.44084520525661	28.16673199274965	39.27265930586594	50.01826706166787	53.52914038690443	52.22170381419062	37.83875522011482	18.44038044848782	23.15599432041353	12.09885404944032	14.48698777638987	-8.50610303272191	-17.40980172504555	-33.04200874813694	-33.52283633491578	-33.72639296840714	-31.97511741547504	-29.13033084733524	-28.23810668025703	-26.51213740202297	-28.36481347401678	-30.79191287572968	-29.32194983663453	-29.13375741072747	-28.33399718880577	-27.49657696370502	-26.45047606687984	-25.1076622009648	-23.54376609694447	-22.31752226750143	-21.52400197722238	-20.79428715862565	-19.22352887667302	-22.10113229627359	-23.56164712745834	-23.06100374314002	-20.04640680554763	-15.68835104068842
0.111626865805988	-21.36526015897959	-22.5572084887358	-16.20614502671316	-22.90663234282181	-38.4421008125851	-45.18391280614944	-50.08230661373423	-47.01174292174503	-29.00280525573831	25.54409236800183	65.48233636457553	101.1491829496529	85.9826628585617	33.13676197168883	-24.40725574281208	-41.77414669525163	-33.82884751580818	-38.17956995958627	-50.18690242085944	-50.37891978605762	-33.75581947787163	25.05012639634299	66.53951802253056	58.33186854476457	3.692329414510539	-42.54268703116489	-16.14258710942198	2.914662276040929	4.637723681525699	-8.943656146774856	-9.077888476506871	1.368244619925974	8.181998173946965	-2.864620173167737	9.782942205170968	26.82991717143381	26.88552809634479	-6.545507406290596	-10.89439961986312	15.7797269793233	38.09552662635713	70.43347151023124	59.31939918252698	36.03421466193595	33.73046493453529	48.70517300904089	47.36286018097621	44.65397415589246	31.10025135332671	62.11382908023182	59.09261618503797	8.747967446224436	-36.05254350574012	-13.34129684944139	9.246208618700678	26.00159577640852	34.13984810755869	53.3066934834377	40.22778424099209	29.12585866214926	51.02922822675924	53.31781259341375	46.13724324873067	37.98924231222662	10.4289335743274	-9.172493658769952	-24.82092763865558	-18.25142529216834	-11.53375753058333	-16.35742412684118	-43.10379452938656	-36.96215774704035	-28.81938337187631	-15.23128651134243	-3.290067595591665	3.744745390248568	5.32010217002852	-3.187842798857446	-0.7140203815663995	-4.641513636332206	-9.528234506593094	-34.37405115991362	-30.07849729923856	-7.088824675398257	6.644699699399268	9.66630505299139	-2.135235329355339	-23.88638451355547	-23.48922222846051	-21.56278512836946	-18.49155734388489	14.4973638915958	55.22428179503129	93.0827430088745	119.2846480929441	107.0577172814233	42.75956204766277	17.47714548600828	-6.077458551366249	-11.29542820319682	-10.32966562334116	-1.439962918611968	-1.117468619743363	-12.5026159516504	9.363151648310009	3.133724482846958	-17.52048200389345	5.729701107715982	23.50492716693913	28.02031334574855	30.33092895662327	45.36267943953141	61.32266527582999	67.97496232672148	73.16135359135734	59.63845631442274	14.0902357028483	8.453693194950347	14.72075598327149	12.9764368022532	12.23411020496394	28.29682380408707	54.61794233623414	27.1978344323847	43.59434173229846	54.53817537279468	64.23976422425443	61.31264872543289	30.24874348600622	7.269792708620798	9.237797262333743	6.435026068189643	19.51907669251858	-17.82677121267881	-36.1398754883395	-36.85656489082413	-37.11087732603352	-36.60042326801857	-33.98452328295775	-32.27979947554127	-31.45001946974645	-32.31839559572069	-32.99178361244532	-33.24496917722854	-32.53879022677978	-30.70105960124937	-29.29540479353614	-28.15642267263343	-26.89911330238078	-25.42117524718566	-23.78473787934212	-22.81656932650526	-21.73937432855422	-20.8736296965518	-20.38060915264435	-22.02053769937396	-23.62817032428376	-23.83744492063857	-21.49343430775161	-18.45757402464773
56.95717009340638	40.43391603930911	27.01467338119386	13.77278806477716	-21.01552386804974	-40.13021213068302	-50.14930497993106	-56.39766476618894	-50.72349601038292	-18.70989701491413	35.58183192618088	76.05459962001163	96.83346525078895	80.63952069651765	20.89919615762295	-40.98615591871629	-27.77282276349658	-7.051677099205335	-22.15222369296305	-44.79306022217514	-29.75915915047594	-16.17081770730442	31.95169916047428	58.46707850483187	37.91458883736698	-21.69968202187187	-45.64551658871872	-21.2276179680909	-14.65910814750112	-29.82374359077687	-31.91783332713442	-10.52332049674396	-2.834548111522622	7.192629037799463	3.066678530719571	14.01486261330018	25.13026430821282	17.05165956418989	0.2764785267377761	9.819415176900122	47.51845961602817	73.12589854593523	81.60072423269861	79.28089450105608	73.17503445882886	22.71960365778563	-40.11774966041975	-49.24525714110146	-18.69153006196854	27.15753956324579	61.50590044707855	57.22746726618948	1.074798473472015	-18.43263466312834	10.87202195769959	33.24504809425264	43.54707129989174	52.47690080657372	47.02677716289458	16.27512687060437	-30.97328625688459	-37.6736550671946	-35.29677068761185	-41.67013305904754	-38.52247159706013	-34.29105051286359	-40.18575193181397	-28.83713257917049	-20.97441140157702	-8.355956785342187	-10.0718584046158	-1.383328758866071	-21.19953311588336	-29.03805330896927	-14.69751972508692	-6.976278573947695	-2.51598360454517	-1.324838793205345	-9.33365203352588	1.597857264485413	2.30888128630454	5.986284070016666	-11.08083850238285	-15.83810998934922	5.443142919476145	18.35301270594761	29.01264247882096	25.62706653282316	-6.936297040829004	-10.78313898037123	-14.13324507726173	-18.71009363466266	-5.707193174317979	22.53918914057016	53.69717848525238	72.94272471319005	65.53999525019441	19.99997119664914	-6.288296408958274	-31.2017818572732	-30.13809857375406	-18.71196437236165	-11.17074248202749	-9.51698869217887	-4.391148810597201	-5.444060431762921	-10.61194105368054	-8.669923510225487	5.784939802980432	21.38595001346852	28.41045249606003	31.57949249697293	49.83532655670615	63.32561555195269	69.79792258022087	77.58843619643108	58.16942283363244	18.06304218862471	25.72265168201517	39.49385177462045	45.51169125268189	30.65828766044552	9.255924984085937	0.4320265482845116	24.97052077938912	43.61353561966655	50.5477482666638	54.28430763112294	45.2124829650669	13.47631355067267	32.11269837206544	52.61846655690368	43.0600026549368	11.08475251048696	16.63414203188364	12.76004145579014	-4.757799144567571	-34.00478957813328	-37.09835548134998	-35.50503464806746	-33.69851243343209	-32.75685802564652	-33.16240001587232	-34.04716660204076	-34.5051453222091	-33.78810389146821	-31.64551495760662	-29.58333213406308	-28.50298343855701	-27.68969280182949	-25.98446440452858	-23.1846918987049	-22.59027098316818	-21.53573493737008	-20.91553654640364	-20.4710082163262	-21.82564942191641	-23.08334262919988	-23.62606533036649	-21.63746013128701	-18.13656909221527
